-0.566063 -0.018412 0.037966 
-0.048348 -0.023845 -0.259785 
0.334759 -0.020995 0.011096 
-0.580466 -0.000203 0.010316 
-0.110973 -0.017064 -0.356307 
-0.383171 -0.013466 0.033792 
-0.371308 -0.014786 -0.327580 
-0.296594 -0.023517 -0.265544 
-0.171719 -0.015492 -0.390932 
0.339826 -0.003895 -0.018716 
-0.376805 -0.025003 0.093525 
-0.160908 -0.019006 -0.335762 
0.108512 -0.016004 -0.185872 
-0.122064 -0.013968 -0.192281 
-0.361677 -0.016066 0.028333 
0.018797 -0.019246 -0.236869 
0.354939 -0.021772 0.199582 
0.424528 -0.011185 0.066686 
-0.335453 -0.018786 0.051731 
-0.209446 -0.014148 -0.283012 
-0.424311 -0.022151 0.000497 
-0.187408 -0.019275 -0.217377 
-0.257414 -0.018907 -0.197347 
-0.502755 -0.011429 0.031953 
-0.449745 -0.021525 0.044678 
-0.465769 -0.023496 -0.148769 
-0.277941 -0.015704 -0.336554 
-0.420037 -0.020380 -0.237016 
-0.234985 -0.021458 -0.376390 
-0.490050 -0.012666 -0.081150 
-0.252162 -0.016566 0.147350 
0.258453 -0.021551 0.329227 
0.324851 -0.021915 0.168442 
0.151188 -0.026386 0.365462 
0.308407 -0.011826 0.254531 
0.171132 -0.013018 0.447382 
0.040436 -0.022761 0.245462 
0.322799 -0.009255 0.249968 
0.314301 -0.021710 0.290683 
0.255644 -0.014233 0.386521 
0.204608 -0.013505 0.358132 
0.041201 -0.019737 -0.208447 
0.282829 -0.025861 0.093526 
0.177042 -0.014571 -0.130742 
0.354795 -0.019679 0.007493 
0.268098 -0.020999 -0.086600 
0.359510 -0.012636 -0.029509 
0.224238 -0.011603 0.431236 
0.063434 -0.003185 -0.241955 
-0.425143 -0.001533 0.138120 
-0.410905 -0.011885 0.081438 
-0.239117 -0.020352 0.169365 
-0.523054 -0.013262 0.072579 
0.189479 -0.026692 0.341982 
-0.439623 -0.024116 -0.002293 
0.289567 -0.018519 -0.011473 
0.211340 -0.019484 0.046366 
0.112931 -0.017198 -0.150153 
-0.476125 0.014159 -0.048220 
-0.151313 -0.023874 -0.355471 
-0.225486 -0.004116 -0.419908 
-0.322685 0.003140 -0.376390 
-0.079316 -0.026879 -0.344906 
0.043812 -0.022005 -0.247627 
-0.145756 -0.019412 -0.326847 
-0.539088 -0.015087 0.006893 
-0.137014 -0.018525 -0.344988 
0.014764 -0.028485 -0.297387 
-0.052032 -0.016621 -0.214563 
-0.356765 -0.020121 -0.263885 
0.229328 -0.015566 0.310005 
-0.350071 -0.019528 -0.204703 
-0.369741 -0.022135 -0.275618 
0.281766 -0.029172 -0.147969 
0.194087 -0.020801 -0.194471 
0.372967 -0.020645 -0.093948 
-0.424445 0.005145 -0.193831 
0.104578 -0.025869 -0.245793 
-0.406091 -0.021514 -0.172926 
-0.420421 -0.020086 -0.184101 
-0.059089 -0.026394 -0.308271 
-0.054143 -0.023624 -0.278320 
-0.372704 0.002360 -0.285291 
0.036168 -0.021522 -0.226679 
0.029754 -0.020239 -0.255198 
-0.201064 -0.016343 -0.264884 
-0.039049 -0.022322 -0.237648 
-0.226461 -0.019885 -0.396197 
-0.125358 -0.017086 -0.255589 
-0.277456 -0.022641 -0.458477 
-0.319259 -0.022778 -0.366812 
-0.261324 -0.016057 0.103387 
-0.339324 -0.022614 0.091222 
-0.475000 0.005475 -0.101437 
-0.277971 -0.028655 -0.408764 
-0.329209 -0.023565 -0.314698 
-0.334368 -0.020464 -0.339695 
-0.378459 -0.022436 -0.224130 
-0.284986 -0.022686 -0.429417 
-0.364359 -0.016506 -0.180218 
-0.384759 -0.017711 -0.249441 
-0.208897 -0.021489 0.169977 
-0.212411 -0.016242 0.232331 
0.221743 -0.015025 0.427871 
-0.008871 -0.028222 0.328796 
-0.096938 -0.028635 0.283602 
0.273970 -0.009629 0.341139 
0.249448 -0.019139 -0.160984 
0.345720 -0.006456 -0.103306 
-0.155228 0.004233 0.245852 
0.033589 -0.023835 0.316124 
0.135260 -0.014357 0.377585 
0.298053 -0.025883 0.204028 
0.121014 -0.015068 0.418795 
0.138007 -0.022549 -0.143058 
0.298761 -0.022242 -0.112964 
-0.107662 -0.015327 -0.325894 
-0.031978 -0.021194 -0.330042 
0.090483 -0.014720 -0.255162 
-0.018196 -0.011845 -0.273355 
0.183557 -0.019479 -0.212895 
-0.303162 -0.021618 -0.038762 
-0.045096 -0.014778 0.278421 
0.046970 -0.006808 -0.179642 
0.278603 -0.009808 0.224378 
-0.229973 -0.016525 0.104075 
0.374406 -0.009457 0.160042 
0.173474 -0.014677 -0.012736 
0.304071 -0.011525 0.178432 
0.163195 -0.021430 0.206829 
0.304711 -0.019509 0.099541 
0.284814 -0.011257 0.184370 
-0.328295 -0.018867 -0.173327 
-0.324826 -0.012026 -0.285998 
-0.167825 -0.013897 -0.216417 
-0.160014 -0.016437 -0.300363 
-0.187378 -0.018867 -0.289709 
-0.005815 -0.009109 -0.225131 
0.264175 -0.017909 -0.041004 
0.064168 -0.017404 -0.208701 
0.153671 -0.016431 -0.159204 
0.198587 -0.019777 -0.139803 
0.041208 -0.013820 -0.130080 
0.375861 -0.040595 0.273107 
0.426624 -0.026560 -0.084300 
0.153909 -0.023792 -0.132155 
0.329286 -0.012405 0.132288 
-0.185449 -0.016230 -0.255447 
0.215996 -0.024182 0.186404 
0.167215 -0.023956 0.277071 
0.060648 -0.024863 0.317355 
-0.190315 -0.008824 0.034870 
-0.274161 -0.020989 -0.308588 
-0.205990 -0.018818 -0.326134 
-0.246032 -0.017311 -0.288850 
-0.061156 -0.022092 0.269358 
0.118567 -0.017731 -0.207376 
0.169555 -0.022083 -0.157471 
-0.080827 -0.016728 -0.231178 
0.100402 -0.018798 -0.134113 
-0.176851 -0.015936 -0.307082 
0.089716 -0.017786 -0.281389 
-0.007325 -0.014640 -0.332712 
0.072506 -0.016405 -0.227660 
-0.338187 -0.022213 -0.498247 
-0.319851 -0.017751 -0.483077 
-0.451644 -0.027223 -0.086964 
-0.314837 -0.018704 0.122569 
-0.352315 -0.009555 0.166858 
-0.256681 -0.001816 -0.412364 
-0.035971 -0.010084 -0.199321 
0.215873 -0.017603 -0.126113 
-0.170727 -0.018140 -0.282102 
0.002573 -0.009065 -0.303060 
-0.325911 -0.015651 0.171438 
0.162859 -0.007877 -0.174519 
-0.225890 -0.016189 0.175285 
-0.274101 -0.008923 0.160184 
-0.472138 -0.006851 0.103056 
-0.303180 -0.016904 0.182224 
-0.299799 -0.021478 0.123904 
0.212858 -0.024040 0.116205 
-0.122291 -0.007932 -0.229278 
-0.141308 -0.009967 -0.300981 
-0.381240 -0.002799 -0.190493 
-0.186833 -0.013012 -0.329661 
-0.113988 -0.030082 -0.314776 
-0.050031 -0.016577 -0.253089 
-0.077202 -0.007080 -0.204560 
-0.095856 -0.022749 -0.240553 
-0.429060 0.001210 -0.276334 
-0.258796 -0.014217 0.210374 
0.208582 -0.017843 -0.158717 
-0.437361 -0.019447 -0.048739 
-0.346369 -0.020436 -0.004482 
0.312942 -0.020290 0.012629 
-0.029971 -0.025349 0.266274 
0.111393 -0.025455 0.225176 
-0.121193 -0.017793 0.281583 
-0.080305 -0.012836 0.205458 
-0.103733 -0.007932 0.142224 
0.237141 -0.029273 0.414410 
-0.378698 -0.034467 -0.483041 
-0.384261 -0.019097 -0.099872 
-0.200814 -0.008296 0.213120 
-0.190801 -0.015592 0.247990 
-0.338762 -0.006592 -0.051336 
-0.123633 -0.008070 0.238059 
-0.238159 -0.009531 0.231604 
0.242580 -0.008228 -0.030918 
0.024099 -0.013649 0.258794 
0.115825 -0.020599 0.301032 
0.254343 -0.008337 0.271342 
0.196457 -0.010413 -0.057125 
0.081092 -0.017479 0.394693 
0.069417 -0.009028 0.289123 
0.049301 -0.016884 0.210459 
-0.374108 -0.005952 -0.307007 
-0.213285 -0.007581 -0.278828 
-0.301147 -0.014126 -0.331096 
-0.237693 -0.010072 -0.236178 
-0.256550 -0.010171 -0.303759 
-0.015256 -0.057281 -0.321701 
-0.350499 0.002070 -0.212761 
0.224025 -0.008290 -0.099406 
0.130981 -0.005062 -0.149456 
0.041326 -0.010243 -0.199689 
-0.030685 -0.011448 -0.181521 
0.087909 -0.015108 -0.178147 
0.253890 0.009477 -0.137504 
0.508756 -0.012501 -0.033037 
0.291740 -0.014299 -0.083591 
0.318216 -0.013618 -0.092662 
0.067279 -0.024861 -0.252410 
-0.005926 -0.019395 -0.190122 
0.464183 -0.018882 -0.042988 
0.420619 -0.038766 0.186450 
0.157607 0.006169 -0.185866 
-0.431351 -0.017495 0.119455 
0.391726 -0.017776 -0.058406 
-0.498887 0.005174 0.054887 
0.223307 -0.018326 0.353812 
0.092254 -0.027724 0.338195 
0.161249 -0.016082 0.332876 
-0.560303 -0.018763 0.042263 
-0.165870 -0.007002 0.209971 
0.036592 -0.024853 0.361078 
0.435641 -0.014777 0.058729 
0.489428 -0.015533 -0.026646 
-0.053205 -0.023481 0.314458 
-0.395773 -0.007424 -0.127450 
0.377570 -0.013396 -0.036498 
0.330292 -0.002390 0.216458 
0.200886 -0.034408 0.379187 
0.333421 -0.023623 0.234995 
0.384679 -0.019900 0.146576 
-0.381634 -0.006055 0.155844 
-0.271782 -0.006603 0.044989 
-0.367572 -0.005970 0.111296 
0.271605 -0.017890 0.260312 
0.358045 0.004328 0.175569 
0.258325 0.003557 0.355964 
0.312693 -0.015037 -0.055206 
0.197255 -0.006713 -0.169530 
0.150994 0.000494 -0.075751 
0.284746 -0.001788 0.115385 
0.263984 -0.005630 0.041320 
0.266340 -0.009689 -0.077311 
0.360717 -0.004057 -0.021533 
0.175501 -0.009801 -0.126793 
0.105488 -0.001601 -0.102188 
0.308691 -0.010744 0.063233 
0.373300 -0.015729 0.079776 
0.223011 0.001283 -0.017729 
0.359672 -0.002542 0.055726 
0.249212 -0.007069 -0.151171 
0.351696 -0.009381 0.129278 
0.288942 -0.019813 0.328425 
-0.075266 -0.034452 0.296727 
0.218252 -0.021540 0.466297 
0.231914 0.004432 0.404220 
0.162068 -0.000698 0.422563 
0.069207 0.002412 0.374732 
0.106484 -0.020059 0.406071 
0.272408 -0.026431 0.371979 
-0.433088 -0.010061 0.012407 
-0.388925 -0.006869 0.039655 
-0.456633 -0.003096 -0.053752 
-0.357016 -0.003059 -0.236562 
-0.287127 -0.001354 -0.256808 
-0.479243 -0.008305 -0.011329 
-0.056243 -0.007729 -0.133300 
-0.410489 -0.004008 -0.029236 
-0.168335 -0.005758 -0.252961 
-0.150084 0.005402 -0.176474 
0.014770 -0.007989 -0.154526 
-0.311262 -0.011599 -0.350385 
-0.317810 -0.015621 -0.121498 
-0.333817 0.011271 -0.136903 
-0.287494 -0.010435 -0.144519 
-0.366185 0.000649 -0.001108 
-0.257811 -0.020229 0.209610 
0.131533 -0.019913 0.300602 
-0.344317 -0.002580 0.067386 
-0.307759 -0.010916 -0.215818 
-0.331670 -0.001722 -0.280628 
0.051584 -0.008749 0.101690 
-0.493869 -0.043379 -0.004151 
-0.433124 0.007713 0.041623 
-0.453664 -0.025041 -0.083768 
0.060824 -0.015315 -0.133066 
0.293384 0.005556 -0.037500 
-0.343556 -0.008577 0.176617 
0.296957 -0.014567 0.216881 
-0.211042 -0.015199 0.236516 
-0.349006 -0.021473 0.156812 
0.134393 -0.006808 0.384901 
0.239776 -0.026903 0.414843 
-0.217017 -0.011664 -0.165106 
-0.126831 -0.008018 -0.113464 
-0.515794 -0.027356 -0.058815 
-0.568509 -0.008897 0.049229 
-0.514784 0.028363 0.074051 
-0.431640 -0.029232 -0.015703 
-0.277602 -0.003210 0.163100 
-0.460288 0.022716 -0.018394 
-0.442287 0.022963 0.105820 
-0.050607 0.001086 0.292224 
0.262295 0.009459 0.427851 
0.087609 -0.005930 0.359898 
0.140172 0.019395 0.366376 
0.243525 -0.020544 0.363208 
-0.383846 -0.008196 -0.077833 
-0.314075 -0.005629 -0.096773 
-0.335912 -0.003629 -0.166238 
-0.142166 -0.011218 -0.303070 
-0.462540 -0.002157 0.063762 
0.456314 -0.019478 0.014554 
-0.097905 -0.008532 -0.275558 
0.034373 -0.006473 -0.083279 
-0.489568 -0.000284 -0.115309 
0.170649 -0.019064 -0.090731 
-0.010890 -0.012220 0.349313 
-0.298929 -0.022901 0.178509 
-0.011158 -0.015213 0.346399 
-0.306763 -0.001481 -0.326631 
-0.215361 -0.004770 -0.278590 
0.108413 -0.010843 -0.219954 
0.378729 -0.010409 0.041097 
0.358061 -0.013679 0.204103 
-0.234033 -0.008427 -0.351606 
-0.329307 -0.008508 -0.285203 
0.255931 -0.017552 -0.167038 
-0.510617 -0.011474 0.026277 
0.145176 -0.011192 -0.155556 
0.120235 -0.013298 -0.220268 
0.191112 -0.022800 -0.193966 
-0.153267 -0.016862 -0.377939 
0.011858 -0.027477 -0.295202 
0.286027 -0.010981 -0.083066 
0.195250 -0.006489 -0.167396 
0.317088 -0.006833 -0.085900 
0.024222 -0.007477 -0.264142 
0.102428 -0.031611 -0.247234 
0.050488 -0.011528 -0.203174 
0.391751 0.009212 -0.041716 
0.397511 -0.023471 -0.029176 
0.155935 -0.009830 -0.198861 
0.098898 -0.015355 -0.068698 
0.164000 -0.002524 0.416862 
-0.462897 -0.031726 -0.154689 
-0.521948 -0.003164 0.084787 
-0.425398 0.036609 0.132921 
0.339605 0.008324 -0.089440 
-0.234574 -0.015410 -0.424895 
0.482085 0.009013 0.008523 
-0.301127 0.022900 0.186658 
-0.260898 -0.002570 -0.302342 
-0.025655 -0.010919 -0.298943 
-0.288205 -0.004491 0.205975 
-0.215779 0.038093 0.250933 
-0.615030 -0.011740 0.059149 
0.310981 -0.001915 0.259983 
0.059357 -0.018599 0.381591 
0.031176 -0.008658 0.376837 
0.195204 -0.020949 0.392685 
0.235455 -0.015604 0.381356 
-0.367736 -0.007973 0.109442 
-0.427864 -0.012160 -0.106443 
-0.257139 -0.003526 -0.415708 
0.150593 -0.005049 -0.077878 
0.360137 -0.001775 -0.018901 
-0.117283 -0.002551 -0.348908 
-0.280131 -0.006316 -0.374425 
-0.020608 -0.010465 -0.302454 
0.336470 -0.013799 0.316865 
0.016672 0.004835 -0.187880 
-0.334139 0.008875 -0.139783 
0.010728 -0.005811 -0.266770 
0.104515 -0.004839 -0.215530 
-0.235277 -0.027119 -0.381043 
0.421994 -0.020946 0.100653 
0.216866 -0.018852 -0.067059 
0.059552 0.006113 -0.044914 
-0.105797 -0.017175 -0.183269 
0.074638 0.012292 0.146722 
0.348214 -0.015428 0.067212 
0.429291 0.006415 0.097295 
0.371661 -0.021074 0.192797 
-0.383786 -0.013049 -0.153830 
-0.012652 -0.017133 0.342170 
-0.032773 -0.014502 -0.256106 
-0.305863 0.014155 -0.299335 
-0.345243 -0.007454 -0.352068 
-0.156838 -0.018210 0.267126 
-0.428995 -0.003568 0.134210 
-0.331818 -0.009726 0.177635 
-0.475309 -0.000803 0.062949 
0.208501 -0.022051 0.230602 
0.001397 -0.028549 0.285297 
0.261433 -0.011253 0.339293 
-0.076790 -0.005639 -0.315973 
-0.388548 -0.007094 0.038705 
-0.055384 -0.010166 -0.136334 
0.241396 0.000225 -0.024559 
-0.208998 0.000501 -0.398200 
-0.359880 -0.035879 -0.409152 
-0.349771 -0.010061 0.107913 
-0.222180 -0.001197 0.144160 
-0.196764 -0.017933 -0.418714 
-0.609193 0.005979 0.052699 
-0.493386 -0.008652 0.040142 
0.277030 -0.014112 0.147385 
0.200831 0.008762 -0.085041 
0.131727 -0.004168 -0.074661 
-0.068452 0.004739 -0.293872 
-0.382698 0.004726 0.001216 
0.245759 0.009724 -0.057597 
-0.159580 0.002114 -0.347261 
0.194916 -0.014305 -0.135265 
0.473572 -0.017915 0.012589 
-0.289066 -0.012459 -0.281410 
-0.079610 -0.017637 -0.329288 
0.226738 -0.010100 -0.142982 
-0.146811 -0.020017 -0.325887 
0.065783 -0.005976 -0.170687 
0.054958 -0.013811 -0.092050 
-0.344599 -0.027249 0.149292 
-0.108600 -0.007616 -0.354895 
-0.479867 -0.006277 -0.009916 
-0.234486 -0.021736 0.166688 
-0.150496 -0.012051 0.275564 
-0.411970 -0.031954 0.055722 
-0.323530 -0.025838 0.111507 
-0.351991 -0.012593 -0.243427 
-0.453530 -0.008632 -0.057498 
-0.307722 -0.010384 -0.216168 
0.370771 -0.017299 0.077522 
0.391763 -0.009416 -0.000644 
0.348647 -0.009813 0.014270 
0.237044 -0.013302 -0.107749 
0.297128 -0.012689 -0.053183 
-0.035170 0.038405 -0.351677 
0.330640 -0.022611 0.195932 
-0.407972 0.018231 -0.113993 
-0.477520 0.005323 0.014014 
-0.055909 -0.022371 -0.276020 
0.215828 -0.024433 -0.129784 
-0.608590 -0.006888 -0.010227 
0.136102 -0.009439 -0.192036 
-0.617958 0.013041 -0.015502 
0.320634 0.019075 -0.014991 
0.023068 0.011897 -0.239934 
-0.140197 -0.016277 -0.383340 
0.125899 -0.027109 -0.180528 
-0.138644 0.002527 -0.275107 
0.363489 -0.013830 -0.112981 
-0.351881 0.007305 0.190566 
-0.134807 -0.017613 0.224051 
0.102002 -0.017151 0.347147 
-0.370563 -0.011752 0.035913 
-0.502317 -0.011710 0.030021 
-0.200873 0.002439 0.266171 
-0.095279 0.000518 0.268133 
-0.223955 0.004671 0.201329 
-0.240317 -0.011382 0.225895 
0.045821 -0.027355 0.311373 
0.328335 -0.017609 0.125188 
0.038847 -0.033980 0.301854 
-0.099587 -0.013257 -0.164234 
-0.190609 -0.013600 -0.213873 
0.355422 -0.008159 0.091024 
0.130784 -0.008209 -0.150767 
0.105553 -0.013239 -0.110355 
0.416270 -0.010786 0.066582 
0.298095 -0.019559 0.098179 
0.326478 -0.011305 -0.057042 
0.225459 -0.016549 -0.035159 
-0.135346 0.030942 -0.413471 
0.397086 -0.016344 0.031790 
-0.167908 -0.017131 0.200142 
-0.403070 -0.029344 -0.176677 
0.147114 -0.020553 0.323703 
-0.047597 -0.011100 -0.180020 
-0.347168 -0.024904 0.189059 
0.048321 -0.000912 -0.232113 
0.452329 -0.018125 -0.066171 
0.267850 -0.008075 -0.155725 
0.091116 0.004835 -0.148669 
-0.016261 -0.014944 -0.071460 
-0.180032 -0.022514 0.192286 
-0.051556 -0.007695 -0.248639 
-0.288302 -0.007392 -0.143993 
-0.338943 -0.016593 0.054241 
-0.228350 -0.013464 0.178277 
0.374785 -0.011905 0.157734 
0.077317 -0.016413 0.392695 
0.323405 -0.029378 0.228794 
0.163725 -0.022521 0.205818 
0.363958 -0.023131 0.145757 
0.331380 -0.014724 0.011744 
0.103121 -0.016084 0.001683 
0.267455 -0.014711 -0.081853 
0.257265 -0.014789 -0.039155 
0.359958 -0.022121 0.034070 
0.116360 -0.001382 -0.143836 
0.285083 -0.030536 0.272609 
-0.525346 -0.025674 -0.016875 
0.079673 -0.027442 0.334465 
-0.581775 0.005914 0.012544 
0.200348 -0.015142 0.011704 
0.483521 -0.023923 -0.033777 
-0.128191 -0.006430 -0.299022 
0.068897 0.008865 -0.212295 
0.252820 -0.000369 -0.122203 
0.421472 -0.025018 -0.090616 
0.160920 0.003398 -0.170227 
0.240866 -0.015198 -0.180087 
-0.300414 -0.043668 -0.371034 
0.329806 -0.030689 -0.145163 
-0.437690 0.000305 0.022590 
-0.440001 -0.015830 0.001383 
-0.481025 -0.003094 -0.006487 
0.139999 -0.013612 0.379747 
0.270878 -0.042989 0.298423 
0.226207 -0.012410 0.195901 
-0.305631 -0.005803 -0.329332 
-0.459909 0.005411 -0.042902 
0.085395 -0.008028 -0.175529 
0.206270 -0.000773 -0.091204 
-0.327533 0.010465 -0.445776 
0.158515 0.004555 -0.185822 
-0.065307 0.009890 -0.235377 
0.347090 -0.018982 0.121686 
-0.456096 0.006382 0.079397 
-0.167909 -0.028009 -0.393074 
0.163443 -0.013592 -0.200706 
0.080659 -0.013614 -0.250713 
-0.486928 -0.004136 -0.076003 
-0.217191 -0.018499 -0.362909 
0.057724 -0.015356 -0.272313 
-0.325893 0.007465 -0.316492 
-0.416463 -0.001922 -0.095443 
-0.255034 0.016263 -0.330601 
-0.251942 -0.023508 -0.433644 
0.084380 0.003969 -0.291147 
-0.308116 -0.013865 -0.404156 
0.211538 -0.003114 -0.230152 
-0.081577 -0.012041 -0.280531 
-0.041719 -0.006364 -0.287573 
-0.282911 -0.026904 -0.473385 
-0.411602 -0.008871 0.084489 
-0.328227 -0.009741 -0.286406 
-0.471763 -0.001822 0.063789 
-0.513399 -0.025988 -0.063775 
-0.505645 0.001794 0.049770 
-0.405189 -0.015851 -0.040867 
0.423441 -0.014626 0.060030 
-0.096960 -0.008164 -0.276060 
-0.043646 -0.006257 -0.245828 
-0.108523 -0.008206 -0.229979 
0.064814 0.005061 -0.234497 
0.192975 -0.020461 -0.144363 
-0.434495 0.017831 -0.261184 
-0.368116 -0.003445 0.114611 
-0.003082 -0.027609 -0.324327 
0.181678 -0.019469 -0.024866 
-0.397887 0.005913 -0.246584 
-0.394276 -0.004981 -0.193206 
-0.242913 -0.005727 -0.303700 
-0.133098 -0.001567 -0.336010 
-0.222038 -0.016669 -0.402577 
-0.335082 -0.009995 -0.354830 
-0.089896 -0.014568 -0.363793 
-0.211587 0.023743 -0.351155 
-0.288814 -0.004567 -0.427767 
-0.119819 -0.018372 -0.380494 
-0.116463 0.016694 -0.307356 
-0.177645 -0.025831 -0.428663 
-0.030883 -0.026730 -0.333351 
-0.210391 -0.019563 -0.433473 
-0.010012 -0.009671 -0.338239 
-0.340014 -0.023550 -0.510043 
-0.409765 0.020062 -0.296752 
-0.335546 -0.012387 -0.425517 
-0.294329 0.027188 -0.474627 
-0.352766 -0.036436 -0.514701 
-0.012807 -0.017248 0.342766 
-0.368250 -0.000428 -0.237545 
-0.429776 0.006778 -0.202253 
0.176244 -0.000103 -0.115250 
-0.374988 -0.002575 -0.304133 
-0.116346 0.018307 -0.243043 
0.071245 0.015755 -0.146109 
0.140751 -0.020419 -0.206053 
0.100012 -0.004852 -0.277078 
-0.489835 -0.000843 -0.006798 
0.347634 0.009701 0.000058 
-0.188408 -0.049631 0.183199 
-0.013067 -0.018553 0.340157 
-0.612014 -0.018562 0.052973 
0.311286 -0.005450 -0.048165 
-0.094458 0.016673 -0.179553 
0.229781 -0.037126 -0.176676 
0.356789 -0.025305 -0.129885 
-0.270413 -0.028698 -0.328627 
-0.256454 -0.024763 -0.395788 
-0.289762 -0.012502 0.196464 
0.371214 -0.019265 -0.043480 
-0.488203 -0.013333 -0.084040 
-0.411672 -0.000723 0.097087 
-0.460667 -0.041457 0.049829 
0.374356 -0.007269 0.163749 
-0.420732 -0.014917 -0.225624 
0.268811 -0.006816 -0.073027 
-0.329192 0.002489 0.028104 
-0.308666 -0.026015 -0.307822 
-0.339344 -0.003849 -0.347857 
0.263661 -0.021446 0.378649 
0.471662 -0.020709 0.006848 
0.397132 -0.022455 -0.084544 
-0.047118 -0.012025 -0.256369 
-0.096677 -0.006418 -0.274264 
0.280748 -0.020507 -0.094541 
0.255445 0.007946 -0.051073 
0.440686 -0.038981 -0.097579 
-0.014910 -0.016364 0.343016 
-0.446589 -0.009161 -0.057384 
-0.464984 -0.010882 0.052002 
0.269952 -0.033035 0.307596 
0.229163 -0.028251 0.408722 
0.355244 -0.016284 0.200845 
-0.558648 -0.024675 0.024416 
-0.455800 -0.042517 -0.058341 
0.137210 -0.024534 0.362112 
-0.199279 -0.030172 -0.306023 
-0.232614 -0.008120 -0.352910 
-0.248128 0.012369 -0.330679 
-0.309594 -0.027397 -0.352239 
-0.326777 -0.012183 -0.290364 
0.361513 -0.032602 0.175632 
-0.378229 -0.010949 0.150774 
-0.014911 -0.015156 0.344239 
0.209640 0.002365 0.384033 
-0.346177 0.008103 -0.266349 
0.048385 -0.008887 0.334677 
-0.491256 0.002507 -0.000071 
0.031889 -0.012438 0.373971 
-0.414928 -0.019442 -0.116960 
-0.022243 0.022030 -0.185853 
-0.327388 -0.026072 -0.376605 
-0.264021 -0.007405 0.162490 
-0.503445 -0.019321 0.057583 
0.010481 -0.024444 -0.248659 
0.072304 -0.007787 -0.173794 
-0.361717 -0.012367 -0.247788 
-0.348217 -0.013860 -0.248875 
-0.282426 -0.007036 -0.262567 
0.009373 -0.044245 -0.310239 
0.093986 -0.001042 -0.095016 
-0.281020 -0.044032 -0.372822 
-0.250057 -0.030091 -0.445719 
-0.165378 -0.034660 -0.358809 
-0.435793 -0.027281 -0.358347 
0.347011 0.001108 -0.009293 
0.214547 -0.039220 0.435172 
0.314711 -0.034560 -0.123565 
-0.278723 -0.011539 0.151820 
-0.354624 -0.039890 -0.234223 
-0.284192 -0.029453 0.167980 
-0.182602 -0.004162 -0.250943 
-0.415034 -0.015458 0.072111 
0.049496 -0.015886 -0.249356 
0.167148 -0.017553 0.440751 
0.190948 -0.017308 -0.181793 
0.376376 -0.019953 0.153762 
0.203853 -0.037102 -0.204408 
0.409636 -0.031308 -0.033568 
0.051542 -0.007292 -0.129640 
0.061519 -0.012863 -0.137023 
0.408899 -0.028815 -0.066261 
0.438190 -0.006113 0.034458 
-0.073843 -0.043799 -0.359640 
-0.209414 -0.025875 -0.446363 
0.101691 -0.014090 -0.187358 
0.207730 -0.036325 -0.097074 
0.031585 -0.036710 -0.194814 
0.248841 -0.004927 0.399654 
-0.159952 -0.004084 -0.179719 
-0.467135 -0.033778 -0.048967 
-0.466951 -0.048016 -0.138619 
-0.014654 -0.015581 0.343193 
-0.197093 -0.013294 0.244910 
-0.416007 -0.026866 0.100351 
0.327044 -0.015910 0.244657 
0.426344 -0.015438 0.068933 
-0.268506 -0.022048 -0.391568 
-0.291952 -0.014630 -0.381465 
-0.410170 -0.039861 -0.325114 
0.159791 -0.028818 -0.147851 
-0.510256 -0.027009 -0.135925 
-0.458807 -0.034506 -0.233256 
0.078109 -0.023571 0.379480 
-0.014656 -0.015664 0.343487 
-0.154235 -0.041581 -0.336365 
0.167678 -0.017654 0.441188 
0.335167 -0.022195 0.000756 
-0.197504 -0.012624 0.245561 
0.404525 -0.022695 0.100167 
-0.241885 -0.014901 -0.395739 
0.207547 -0.019193 -0.183132 
0.396084 -0.039527 -0.041001 
-0.241281 -0.023982 -0.367007 
-0.390245 -0.021145 -0.210169 
-0.414327 -0.019051 -0.199378 
-0.494786 -0.021420 0.010940 
-0.322441 -0.045684 -0.439361 
-0.274815 -0.007409 -0.339634 
0.381102 -0.012149 -0.037002 
-0.197229 -0.014725 0.242929 
-0.301116 -0.019049 -0.477948 
0.023073 -0.059007 -0.258560 
-0.363447 -0.018014 -0.288214 
0.076768 -0.018180 0.387905 
-0.462845 -0.018211 -0.143677 
-0.357534 -0.027063 -0.260777 
-0.424281 -0.019485 -0.005510 
-0.360695 -0.026188 -0.334900 
-0.372974 -0.048069 -0.354660 
-0.202126 -0.038604 -0.357538 
-0.284968 -0.043472 0.147318 
0.336361 -0.030121 -0.139646 
-0.196126 -0.016623 0.240157 
-0.014537 -0.015619 0.343874 
0.124303 -0.015275 0.417264 
0.238273 -0.010312 -0.108311 
0.290634 -0.011993 -0.086903 
0.333724 -0.003569 0.065847 
0.439705 -0.032484 0.004192 
0.255730 -0.018122 0.065976 
-0.410730 -0.019868 -0.236981 
-0.226175 -0.034887 -0.383111 
-0.345163 -0.022006 -0.259149 
-0.275100 -0.023589 -0.281950 
-0.326170 -0.033715 -0.203921 
-0.456458 -0.020751 -0.077590 
-0.319743 -0.028692 -0.311801 
-0.338099 -0.015603 -0.331195 
-0.180562 -0.026929 -0.348175 
-0.409260 -0.017727 -0.164385 
-0.329686 -0.011347 -0.251402 
0.386755 -0.035304 0.089494 
-0.190563 -0.026550 -0.307925 
0.355705 -0.028630 -0.054050 
0.256639 -0.026003 -0.181521 
0.430779 -0.030213 -0.088906 
0.354795 -0.021798 0.196795 
-0.159586 -0.021085 -0.347856 
0.247628 -0.039286 0.344213 
0.511733 -0.018859 -0.042431 
0.161037 -0.022557 0.313744 
0.243985 -0.022566 -0.221866 
0.424606 -0.030142 -0.126622 
-0.375243 -0.056779 0.078003 
-0.197170 -0.017176 0.239041 
-0.015904 -0.014856 0.344640 
0.047946 -0.021423 -0.254300 
0.282254 -0.015592 0.336238 
-0.513295 -0.032947 -0.076054 
0.337149 -0.033419 -0.141268 
0.163619 -0.025850 0.424152 
0.076654 -0.018041 0.387823 
0.215749 -0.025667 0.105120 
0.329031 -0.017083 0.245908 
0.226682 -0.021101 -0.117729 
0.201665 -0.011559 -0.135661 
0.328172 -0.051555 -0.080533 
0.244807 -0.043750 -0.117464 
0.187121 -0.002979 -0.197159 
-0.296317 -0.027004 -0.358298 
-0.504528 -0.018452 0.016132 
-0.436322 -0.026772 -0.015271 
-0.394874 -0.009756 0.079987 
-0.483253 -0.012874 0.022363 
-0.430536 -0.007148 -0.060778 
-0.445180 -0.021457 -0.079707 
-0.299180 -0.015896 -0.229156 
-0.368769 -0.016551 -0.207859 
0.204746 -0.033665 0.445572 
0.181168 -0.027628 0.302002 
0.197803 -0.030391 0.369260 
-0.398998 -0.022059 -0.132741 
-0.341849 -0.018111 0.089031 
-0.382337 -0.020469 -0.055986 
-0.195117 -0.020368 0.234502 
0.049227 -0.023553 -0.256646 
-0.411668 -0.002372 0.135951 
-0.248033 -0.025420 -0.141104 
-0.456251 -0.027180 -0.158120 
-0.106852 -0.021065 -0.371847 
-0.310920 -0.016950 -0.072256 
-0.235986 -0.049157 -0.401576 
-0.461755 -0.019037 -0.146033 
-0.552946 -0.021224 0.022588 
-0.068556 -0.028530 -0.343116 
-0.468141 -0.038329 -0.170247 
-0.415388 -0.033786 -0.252321 
-0.403896 -0.025731 -0.251398 
-0.116656 -0.009804 -0.309344 
-0.380420 -0.019092 -0.170408 
-0.184449 -0.003875 -0.283703 
-0.096685 -0.004632 -0.234199 
-0.149895 -0.029713 -0.324829 
-0.287811 -0.011039 -0.261541 
-0.240807 -0.028232 -0.372852 
-0.338310 -0.019854 -0.185526 
-0.248645 -0.015863 -0.318693 
-0.055771 -0.028128 -0.238476 
-0.023832 -0.040230 -0.261977 
-0.298078 -0.013271 -0.300230 
-0.265846 -0.024005 -0.322832 
-0.464743 -0.020673 -0.110730 
-0.021463 -0.027862 -0.323669 
-0.044563 -0.042177 -0.326358 
-0.383321 -0.022599 -0.213200 
-0.128264 -0.030311 -0.364321 
-0.465651 -0.009313 0.058732 
-0.316858 -0.020037 -0.228915 
-0.366334 -0.019732 -0.137924 
-0.292663 -0.038771 -0.403698 
-0.418029 -0.029678 -0.060035 
-0.339759 -0.032461 -0.309172 
-0.312083 -0.014313 -0.374270 
-0.442734 -0.036398 -0.138317 
-0.216877 -0.026641 -0.410944 
-0.448119 -0.018222 -0.035767 
-0.488782 -0.031689 -0.044433 
-0.194187 -0.021866 0.231573 
0.359287 -0.019393 0.076187 
0.142613 -0.035432 -0.222921 
0.019838 -0.010447 -0.233510 
0.401719 -0.007774 -0.143850 
-0.346940 -0.010290 -0.128530 
-0.194522 -0.022749 0.230808 
0.075445 0.006112 -0.217809 
-0.063439 -0.009143 -0.282815 
0.206753 -0.025988 0.341596 
-0.231504 -0.037005 0.138776 
0.258159 -0.022423 0.379843 
0.304102 -0.024570 0.286952 
-0.202120 -0.001726 -0.349023 
-0.396219 -0.061813 -0.154935 
-0.176692 -0.022478 -0.271429 
-0.107668 -0.028267 -0.296546 
-0.200898 -0.032609 -0.352120 
-0.400454 -0.037054 -0.001884 
0.403375 -0.024468 -0.019370 
0.369519 -0.030240 0.017095 
0.166562 -0.017816 0.439617 
-0.194603 -0.022541 0.230553 
-0.010639 -0.015385 0.341778 
0.383975 -0.027142 -0.092627 
-0.343118 -0.018454 -0.256125 
-0.155065 -0.009773 -0.334885 
-0.317447 -0.018348 -0.299910 
-0.377662 -0.003597 -0.033264 
-0.380209 -0.031078 0.113925 
0.295093 -0.021215 -0.135518 
-0.260485 -0.012672 -0.275147 
-0.272893 -0.040339 -0.231329 
-0.451095 -0.018003 -0.072682 
-0.237084 -0.030097 -0.372658 
-0.278682 0.022462 -0.058908 
-0.338690 -0.034467 -0.203597 
-0.195930 -0.018142 -0.419375 
-0.229999 -0.014433 -0.322778 
-0.347745 -0.013870 -0.212552 
-0.312717 -0.018568 -0.226290 
-0.210877 -0.016034 -0.252742 
-0.065738 -0.029211 0.295721 
-0.336690 -0.023633 -0.153761 
-0.367299 -0.019037 -0.211422 
0.186187 -0.019931 0.392857 
-0.521660 -0.031342 -0.032675 
-0.366384 -0.009547 0.110481 
-0.081828 -0.005401 -0.362139 
-0.295999 -0.015141 -0.477521 
-0.451915 -0.020186 -0.209258 
-0.398157 -0.020803 -0.302281 
-0.344589 -0.009641 -0.377572 
-0.470060 -0.024759 -0.038081 
-0.267816 0.000235 0.177050 
-0.360381 -0.024089 0.083430 
-0.258267 -0.010170 -0.467725 
-0.553354 -0.031676 -0.048792 
-0.508082 -0.031566 -0.142258 
-0.167473 0.000564 -0.402230 
-0.011634 -0.023102 -0.322798 
-0.589641 -0.021431 0.013836 
-0.391641 -0.029526 -0.361647 
-0.533018 -0.019456 -0.086573 
-0.333765 -0.016744 -0.435961 
-0.433427 -0.016873 -0.261825 
-0.486494 -0.014666 -0.167127 
0.095101 -0.002959 -0.244965 
-0.343149 -0.008684 -0.500227 
-0.608212 -0.026385 0.057951 
-0.193078 -0.022342 0.231237 
-0.319407 -0.006546 0.180504 
-0.064681 -0.024038 -0.337035 
0.076590 -0.021952 0.381239 
-0.045806 -0.027377 0.256734 
-0.462846 -0.017525 0.081400 
-0.086597 -0.026920 -0.226449 
0.118293 -0.026632 -0.242993 
0.177809 -0.028715 -0.156858 
0.517246 -0.012777 -0.034153 
0.114773 -0.028524 -0.272404 
-0.198245 -0.021254 -0.304396 
-0.281491 -0.020016 -0.273660 
-0.390918 -0.013987 -0.160297 
-0.504085 -0.015317 0.062590 
-0.197877 -0.028589 -0.345104 
-0.245997 -0.016183 -0.318851 
0.031128 -0.016488 0.364365 
-0.397607 -0.018610 -0.050195 
-0.445301 -0.010955 0.051613 
-0.264904 -0.016696 0.145326 
-0.382917 -0.026497 0.008279 
-0.194906 -0.022392 0.230889 
0.178079 -0.019848 -0.026611 
-0.062392 -0.021937 0.191819 
0.131905 -0.016149 0.069685 
0.284283 -0.041832 0.137225 
-0.109753 -0.026662 0.271825 
0.341413 -0.014591 0.013764 
-0.413611 -0.028581 -0.246773 
-0.215732 -0.019954 -0.372235 
-0.254398 -0.022646 -0.211656 
-0.105396 -0.024617 -0.372880 
0.388014 -0.044134 -0.096345 
-0.339666 -0.017625 0.084863 
-0.068875 -0.012638 -0.287428 
0.028153 -0.027633 0.114412 
-0.440496 -0.039429 0.003005 
0.131141 -0.033012 0.230332 
-0.515811 -0.022630 -0.022233 
0.282955 -0.021528 0.204749 
0.092616 -0.022890 0.337833 
-0.122909 -0.017016 0.180990 
-0.289674 -0.007122 0.092100 
0.058294 -0.028912 -0.261194 
-0.146994 -0.026158 0.013789 
0.185154 -0.041363 -0.209699 
0.290335 -0.019367 0.099068 
0.333946 -0.021352 0.117820 
0.409886 -0.034994 -0.074713 
-0.368156 -0.030845 -0.331947 
-0.320580 -0.030801 -0.418837 
-0.361081 -0.028153 -0.338309 
-0.242981 -0.025675 -0.443818 
-0.273469 -0.020818 -0.279083 
-0.294641 -0.032275 -0.254810 
-0.244297 0.012041 -0.355845 
-0.220085 -0.023211 -0.264780 
-0.428168 -0.029026 0.091833 
-0.242631 -0.019763 -0.246548 
-0.408152 -0.045650 -0.012389 
-0.137410 -0.007072 -0.263530 
-0.281250 -0.024227 0.056725 
-0.330187 -0.021103 -0.359401 
-0.271303 -0.009586 -0.436635 
-0.253553 -0.036268 0.184302 
0.255117 -0.024099 0.251224 
-0.168091 -0.040282 0.229215 
-0.082456 -0.044117 0.273614 
0.007010 -0.041326 0.326113 
0.093254 -0.043560 0.374652 
-0.275284 -0.037749 -0.335300 
0.017720 -0.038176 -0.307219 
0.204642 -0.034342 0.095045 
0.117222 -0.042097 0.335553 
-0.384211 -0.032618 0.109430 
-0.173646 -0.047326 -0.419445 
-0.481107 -0.043031 0.044390 
-0.237055 -0.039265 -0.387512 
-0.491746 -0.021263 0.011844 
-0.192688 -0.021739 -0.423291 
-0.464870 -0.025399 0.032938 
-0.376811 -0.043276 -0.164681 
-0.377138 -0.032747 0.076013 
-0.428917 -0.020120 0.030156 
-0.508711 -0.013759 0.062097 
-0.183506 -0.018310 -0.426557 
0.049082 -0.035120 -0.269005 
-0.260200 -0.029323 -0.443245 
-0.250976 -0.035495 -0.461537 
0.076138 -0.021455 0.382590 
-0.236924 -0.029378 -0.371214 
-0.475228 -0.046471 -0.180147 
-0.266443 -0.004386 -0.345286 
0.411080 -0.030058 0.047582 
-0.509532 -0.031261 -0.077139 
-0.359131 -0.015175 -0.314088 
-0.464294 -0.063024 -0.135573 
-0.524112 -0.049810 0.011412 
-0.427604 -0.044639 -0.077360 
0.318176 -0.026770 0.235968 
-0.372424 -0.044858 -0.355702 
-0.344332 -0.033570 -0.283133 
-0.381532 -0.021470 -0.273772 
-0.159414 -0.015518 -0.379265 
-0.432071 0.001253 -0.379541 
-0.436264 -0.057372 0.017985 
-0.411010 -0.013748 -0.225301 
-0.423560 -0.044017 -0.265173 
-0.490604 -0.032305 -0.010759 
0.076064 -0.021037 0.383159 
0.248104 -0.044106 0.297173 
-0.467660 -0.025853 -0.150183 
-0.433877 -0.028837 -0.017047 
-0.499096 -0.020181 0.014126 
-0.454981 -0.031525 -0.229131 
-0.620252 -0.029167 0.019160 
-0.342939 -0.011261 -0.209649 
-0.294881 -0.014326 -0.304030 
-0.427395 -0.011989 -0.174113 
-0.595667 0.025162 -0.025440 
-0.395481 -0.012989 0.068744 
-0.039625 -0.035660 -0.320038 
-0.478975 -0.003782 -0.158919 
-0.591098 -0.008873 -0.018936 
0.133645 -0.027147 0.358420 
-0.334633 -0.029617 -0.311144 
-0.058747 -0.024808 -0.348197 
-0.152363 -0.018862 -0.387487 
-0.195197 -0.022594 0.229574 
0.075922 -0.022031 0.381169 
-0.079285 -0.039287 -0.353113 
-0.585071 -0.011959 0.023505 
-0.380959 0.003006 -0.030003 
0.153703 -0.025638 -0.208904 
-0.319314 -0.008385 0.174941 
-0.279434 -0.025760 0.136386 
-0.447723 -0.023007 0.030775 
0.433347 -0.025003 0.009732 
-0.405938 -0.022117 -0.242603 
-0.388161 -0.014058 -0.164266 
-0.519214 -0.030890 0.050144 
-0.262782 -0.008461 -0.267299 
-0.427477 -0.006483 -0.254189 
-0.287846 -0.030821 -0.399747 
0.334571 -0.037443 0.304973 
-0.068095 0.001573 -0.353147 
-0.385861 -0.014980 -0.490729 
0.062366 -0.014641 -0.219799 
0.415270 -0.033676 -0.067588 
0.352784 -0.022263 0.200056 
-0.197010 -0.003927 -0.365173 
-0.204029 -0.037078 -0.353762 
-0.244797 -0.025538 0.198262 
-0.340104 -0.026898 -0.447399 
0.256957 -0.022361 0.379364 
-0.195118 -0.022254 0.230210 
-0.079360 -0.038783 -0.352381 
0.035260 -0.016332 -0.280787 
0.397152 -0.028687 0.100068 
0.245844 -0.023677 -0.157638 
-0.457440 -0.011192 0.087916 
-0.438053 -0.029129 -0.093721 
-0.372163 -0.022739 -0.104692 
-0.440207 -0.024166 -0.086365 
-0.351583 -0.030305 -0.159307 
-0.321200 -0.030998 -0.420691 
-0.110898 -0.018795 -0.250278 
0.068601 -0.014717 -0.304860 
-0.420182 -0.016780 0.109311 
-0.087850 -0.021620 -0.294809 
0.248705 -0.033262 -0.190723 
-0.221261 -0.008359 -0.321913 
-0.129468 -0.029873 -0.367645 
0.524524 -0.012827 -0.037334 
-0.360046 -0.026934 0.078098 
-0.212957 -0.022320 -0.410207 
-0.177386 -0.020774 -0.429286 
-0.517944 -0.029176 0.075840 
-0.194712 -0.021969 0.230199 
-0.053523 -0.026073 -0.368064 
-0.109581 -0.027342 0.272146 
0.196912 -0.033625 -0.201961 
-0.041470 -0.048779 -0.237774 
0.254629 -0.026004 0.249375 
0.357883 -0.022352 -0.038303 
0.285687 -0.023163 -0.018234 
0.186362 -0.025728 -0.154105 
-0.455156 -0.016510 -0.145980 
-0.371898 -0.010387 -0.166940 
-0.415245 -0.009398 0.004182 
-0.376577 -0.014296 -0.054155 
-0.060089 -0.021134 -0.335394 
-0.357047 -0.029444 -0.339432 
-0.258543 -0.017041 -0.286237 
-0.264241 -0.022758 -0.399345 
-0.269256 0.000042 -0.250787 
0.003427 -0.017333 -0.015183 
0.336245 -0.024960 -0.106990 
-0.271407 -0.008649 -0.227512 
0.106486 -0.016261 -0.192835 
-0.284046 -0.006636 -0.467488 
-0.338636 -0.018015 -0.444826 
0.097239 -0.016432 -0.185639 
-0.261752 -0.031633 0.115724 
-0.194506 -0.021682 0.230776 
0.076637 -0.021059 0.382599 
-0.064078 -0.026840 0.302585 
0.112430 -0.030899 0.396038 
0.139217 -0.015788 -0.156787 
0.325388 -0.022816 0.241922 
0.265788 -0.035537 0.306837 
-0.404802 -0.026451 0.052440 
-0.430435 -0.048707 -0.049560 
-0.332760 -0.025498 -0.158119 
-0.436512 -0.027590 -0.128880 
-0.415757 -0.026601 -0.058683 
-0.133792 -0.008667 -0.380742 
-0.231745 -0.022223 -0.446125 
-0.248532 -0.022267 -0.328925 
-0.291543 -0.020053 -0.159075 
-0.255468 -0.009136 -0.307649 
0.334959 -0.035417 -0.142410 
-0.360075 0.025821 -0.307272 
0.075731 -0.021289 0.382155 
0.221693 -0.032044 -0.133308 
0.034014 -0.041377 -0.248458 
0.019173 -0.017547 -0.048671 
0.197616 -0.021051 -0.065039 
0.180619 -0.016929 -0.130498 
-0.493484 -0.043212 -0.022927 
-0.348250 -0.015802 -0.022531 
-0.474964 -0.040872 -0.061813 
-0.213241 -0.028967 -0.385523 
-0.268138 -0.003822 -0.341814 
-0.238633 -0.031471 -0.377072 
-0.070063 -0.021846 -0.300815 
-0.245539 -0.024485 -0.255202 
-0.587455 -0.024893 0.003479 
0.235914 -0.021078 0.299852 
0.457319 -0.007533 -0.058094 
-0.186848 -0.013784 -0.330831 
0.369242 -0.028920 0.140410 
0.076034 -0.021873 0.382099 
0.063146 -0.020792 -0.253666 
0.343062 -0.038554 0.048737 
0.155304 -0.034759 0.413116 
0.119443 -0.023777 -0.131672 
0.244052 -0.023586 -0.156670 
0.194710 -0.033786 -0.093829 
-0.414876 -0.018480 -0.124495 
-0.306876 -0.025789 -0.425593 
-0.324291 -0.013060 -0.256749 
-0.120989 -0.017508 -0.205370 
-0.155138 -0.017150 -0.346968 
-0.102911 -0.024072 -0.291106 
0.262843 -0.017806 -0.171059 
0.119345 -0.027166 -0.271947 
0.301576 -0.020607 -0.136572 
0.114549 -0.026903 0.170934 
-0.219138 -0.025926 -0.376527 
-0.218184 -0.028353 -0.417732 
-0.266712 0.017311 -0.439823 
-0.053563 -0.027045 -0.368005 
-0.449607 -0.004034 -0.058236 
-0.464048 -0.023742 0.033551 
-0.043346 -0.037907 -0.324799 
-0.354365 -0.009403 0.102378 
-0.483423 -0.025921 -0.039547 
-0.195228 -0.022041 0.230660 
-0.328699 -0.005410 -0.169540 
-0.292328 -0.040411 -0.298518 
-0.313659 -0.023231 -0.234352 
-0.362757 -0.032816 -0.155553 
-0.500064 -0.035208 -0.009608 
-0.480557 -0.012447 0.019172 
-0.406271 -0.020137 -0.237958 
-0.370436 -0.029173 -0.327285 
-0.297130 -0.021237 -0.312120 
-0.385676 -0.034192 -0.227225 
-0.344145 -0.013560 -0.213849 
-0.198340 -0.015870 -0.372546 
-0.153959 -0.014295 -0.343713 
-0.112096 -0.018176 -0.393411 
-0.411469 -0.020760 0.104096 
-0.363806 -0.027483 -0.000541 
-0.377543 -0.028649 0.003089 
-0.420375 -0.023680 -0.014818 
-0.146420 -0.019800 0.259549 
0.320153 -0.029593 0.230227 
-0.302203 -0.004409 -0.176235 
-0.296533 -0.022015 -0.239442 
-0.355014 -0.021433 -0.474790 
-0.217128 -0.000154 -0.426678 
-0.424473 -0.002593 -0.341914 
-0.303323 -0.026762 0.059047 
-0.444789 -0.010724 0.046804 
-0.606411 -0.025877 0.060456 
0.348929 -0.011396 -0.114088 
-0.192816 -0.021237 0.230493 
-0.509232 -0.016297 -0.053410 
-0.370840 -0.017579 -0.097939 
-0.320604 -0.014725 0.163797 
0.130653 -0.002768 -0.214727 
-0.061842 -0.018362 -0.334685 
-0.288892 -0.026028 -0.356507 
-0.315457 -0.020326 -0.305434 
-0.520116 -0.024414 -0.180370 
-0.152558 -0.027509 -0.394897 
-0.178350 -0.050334 -0.414201 
-0.130609 -0.019411 -0.391632 
-0.158162 0.016037 -0.393359 
-0.357416 -0.039928 -0.412831 
0.375956 -0.046586 0.072372 
0.070683 -0.030676 -0.198350 
-0.397455 -0.016653 -0.052306 
-0.160493 -0.030424 -0.286367 
-0.467050 -0.012030 -0.025550 
0.142556 -0.027576 -0.213379 
-0.583951 -0.014770 0.012284 
-0.592072 -0.031328 -0.050011 
-0.209563 -0.017983 -0.065201 
-0.243518 -0.012407 -0.316644 
-0.400674 -0.034106 0.042197 
-0.345352 -0.023502 -0.150318 
-0.338447 -0.025582 0.075656 
-0.395766 -0.017583 -0.126773 
-0.393417 -0.037504 -0.004743 
0.411248 -0.013374 -0.013261 
0.011508 -0.019409 -0.281343 
-0.405620 -0.045644 -0.332642 
-0.240850 -0.038822 -0.381457 
-0.060810 -0.009298 -0.288977 
-0.194620 -0.022975 0.228946 
-0.312288 -0.035331 0.091234 
-0.015728 -0.024530 -0.318093 
0.354214 -0.060323 -0.122707 
0.208951 -0.011211 -0.178905 
-0.440960 -0.017939 -0.151638 
-0.389290 -0.023025 -0.247043 
-0.390496 -0.015214 -0.165786 
0.029522 -0.017548 -0.283971 
-0.270150 -0.029778 -0.291431 
0.048072 -0.008404 -0.280517 
0.025019 -0.020169 -0.248393 
0.203730 -0.018796 -0.146352 
0.402854 -0.004180 0.034741 
0.317189 -0.036507 -0.122219 
0.456927 -0.016861 0.014563 
0.364574 -0.028130 0.142145 
0.048680 -0.037688 -0.271980 
-0.338954 -0.016694 -0.258338 
-0.441893 -0.013905 -0.073355 
-0.462049 -0.009426 0.088996 
-0.294124 -0.023115 -0.240346 
-0.179745 -0.013625 -0.300821 
-0.504126 -0.035033 -0.144074 
-0.194364 -0.021414 0.230046 
0.298564 -0.013344 -0.130665 
0.442925 -0.005535 -0.062178 
0.348649 -0.004357 0.131074 
0.416818 -0.016061 -0.053104 
0.259116 -0.006134 -0.158323 
0.116004 -0.015557 -0.195098 
-0.472085 -0.013807 -0.135317 
0.387322 -0.017021 0.107801 
-0.182085 -0.035830 -0.246449 
-0.516612 -0.013815 -0.049944 
-0.422905 -0.011794 -0.000660 
-0.314225 -0.029997 -0.315792 
-0.244597 -0.022969 -0.329352 
-0.226921 -0.038205 -0.274275 
-0.414921 -0.044893 0.030342 
-0.420457 -0.016708 -0.228554 
-0.325458 -0.042576 0.085193 
-0.505535 -0.021102 0.010589 
-0.372542 -0.009603 0.141235 
-0.434078 -0.043876 -0.037486 
-0.460162 -0.012807 -0.069910 
-0.422058 -0.021134 -0.084816 
-0.352567 -0.014050 -0.024839 
-0.129381 -0.015801 -0.317703 
0.475501 -0.018938 -0.034773 
0.426245 -0.004163 -0.012137 
0.352571 -0.017937 -0.002602 
0.211967 -0.022991 -0.115001 
-0.085167 -0.018480 -0.293900 
0.101937 -0.017001 -0.229450 
0.155023 -0.021678 -0.176469 
0.137286 -0.010063 -0.231054 
-0.021012 -0.005830 -0.264264 
0.069490 -0.003271 -0.212570 
-0.079323 -0.018371 -0.332743 
-0.206498 -0.026440 -0.192165 
-0.041535 -0.017528 -0.335547 
-0.171096 -0.026054 -0.389182 
-0.091884 -0.021215 -0.256665 
-0.355606 -0.025434 0.081183 
-0.479495 -0.030206 0.060804 
-0.377873 -0.016854 0.016907 
-0.111874 -0.025483 -0.255923 
-0.231582 -0.029338 -0.149916 
-0.497809 -0.005604 -0.044136 
-0.365229 -0.018601 -0.214964 
-0.416560 -0.014984 -0.121568 
-0.347174 -0.014323 -0.141681 
-0.559402 -0.009628 -0.019538 
-0.477110 -0.011323 0.018669 
-0.404460 -0.021955 -0.013221 
-0.320498 -0.017290 -0.263124 
-0.448152 -0.015582 0.039459 
0.075494 -0.017036 -0.261759 
-0.393799 -0.035688 0.000807 
0.075730 -0.028344 0.372906 
0.163431 -0.025694 0.427356 
0.344753 -0.027240 0.072337 
0.397255 -0.013699 -0.007190 
0.356909 -0.021771 0.072476 
0.405512 -0.019815 0.103406 
-0.367387 -0.040692 -0.051795 
-0.141623 -0.029367 -0.099174 
-0.563029 -0.010864 0.031237 
-0.548413 -0.008366 0.042407 
-0.154978 -0.012483 -0.270335 
-0.308816 -0.018660 0.113066 
0.139734 -0.015921 -0.165538 
0.388532 -0.013282 -0.081466 
0.192596 -0.014947 -0.178830 
0.247452 -0.013849 -0.118218 
-0.138831 -0.019877 0.141822 
0.228553 0.002291 -0.171921 
-0.161152 -0.015025 -0.231761 
-0.110445 -0.018668 -0.324336 
0.031760 -0.020354 -0.213813 
-0.207815 -0.016191 0.166491 
0.273937 -0.018640 -0.091156 
-0.263008 -0.017676 -0.050822 
0.292624 -0.017977 -0.096373 
-0.071702 -0.017738 -0.183872 
0.381384 -0.015847 -0.046350 
0.365314 -0.012065 -0.035954 
-0.351783 -0.019035 -0.104723 
-0.282286 -0.018929 -0.124061 
-0.249922 -0.012336 -0.279998 
-0.260906 -0.024197 0.015743 
-0.372566 -0.008782 -0.090435 
-0.331001 -0.026629 0.032767 
-0.136292 -0.024114 -0.209794 
-0.327485 -0.009871 -0.066906 
0.119776 -0.011069 -0.229534 
-0.001039 -0.018400 -0.127246 
0.155874 -0.027659 -0.105660 
0.068381 -0.021199 -0.150738 
0.088281 -0.021918 -0.080256 
-0.046474 -0.024433 -0.158780 
0.397855 -0.021447 -0.090978 
0.374715 -0.010389 0.077757 
0.003669 -0.022907 -0.246316 
0.023009 -0.020728 -0.175212 
0.280093 -0.018884 0.101501 
0.306747 -0.027894 -0.146596 
0.005888 -0.014496 -0.047689 
-0.221162 -0.022038 0.161049 
-0.306503 -0.020531 -0.006564 
-0.019386 -0.025582 -0.128145 
0.023450 -0.022344 0.015731 
0.033668 -0.024415 -0.067085 
0.052188 -0.021580 -0.145381 
-0.135807 -0.020882 -0.015544 
0.330225 -0.020139 0.043074 
0.426012 -0.018356 0.054986 
-0.232031 -0.024425 -0.219606 
-0.041801 -0.025487 0.259534 
0.125348 -0.018531 0.413395 
-0.131731 -0.012952 0.226021 
-0.233136 -0.021969 0.205519 
-0.374711 -0.021908 0.087420 
-0.356990 -0.016458 0.014699 
-0.250443 -0.016190 -0.208471 
-0.403374 -0.011537 0.070257 
-0.296065 -0.010934 -0.229365 
-0.095273 -0.014793 -0.059173 
-0.416636 -0.017680 0.062384 
-0.387211 -0.010879 0.067060 
0.051292 -0.004609 -0.207494 
-0.021089 -0.018484 -0.198669 
0.203599 -0.016927 -0.070242 
0.333432 -0.018807 -0.072889 
0.306237 -0.030953 0.489329 
-0.347698 -0.022379 0.040385 
-0.326419 -0.017992 0.115852 
0.295799 -0.010517 -0.014004 
0.084136 -0.016058 0.041114 
-0.406752 -0.013028 -0.004376 
-0.388801 -0.030174 0.112834 
0.073240 -0.016654 0.083144 
-0.320874 -0.017500 0.158985 
-0.149069 -0.011057 -0.308080 
0.175623 -0.014271 -0.098979 
-0.556875 -0.010042 0.036373 
0.087230 -0.013932 -0.150266 
-0.391252 -0.014133 -0.238130 
-0.443054 -0.011735 -0.145549 
-0.318799 -0.024017 -0.120014 
-0.516695 -0.009977 0.062776 
0.384777 -0.011958 0.033081 
-0.003227 -0.018726 -0.203330 
0.144814 -0.012310 -0.086481 
-0.177975 -0.014948 0.119953 
0.308894 -0.019449 0.166185 
0.310660 -0.016028 0.291995 
-0.248860 -0.018453 0.136655 
0.281090 -0.018451 0.137245 
-0.435055 -0.020781 0.092614 
-0.408872 -0.007334 -0.243443 
0.183737 -0.023254 -0.070403 
-0.091363 -0.015598 -0.251796 
0.369527 -0.043807 0.118338 
-0.428780 0.002803 -0.173540 
0.318001 -0.028800 0.230410 
-0.436110 -0.022109 -0.008220 
-0.459196 -0.011117 -0.141632 
-0.231250 -0.024325 -0.143661 
-0.040151 -0.016526 -0.266059 
0.018463 -0.020538 -0.058182 
-0.090598 -0.021330 -0.181425 
-0.253440 -0.031235 0.080768 
0.251297 -0.029915 0.018776 
0.355723 -0.025694 0.187207 
0.282273 -0.023298 -0.134074 
0.231772 -0.026191 -0.048625 
-0.207861 -0.031162 -0.005170 
0.092830 -0.022153 -0.004866 
-0.336513 -0.011841 -0.024488 
-0.055325 -0.033855 0.294603 
-0.339213 -0.012966 -0.181727 
-0.034972 -0.015886 -0.038469 
-0.303303 -0.007984 -0.185537 
0.121888 -0.018564 -0.162760 
-0.053453 -0.012864 -0.106842 
0.169825 0.008729 -0.194643 
0.035499 -0.016512 0.362725 
0.256832 -0.008084 0.392366 
0.227885 -0.014270 0.079311 
-0.425985 -0.021795 0.103834 
-0.188955 -0.022063 0.228718 
0.133853 -0.035087 0.122776 
0.274458 -0.022654 0.325494 
-0.180373 -0.012715 -0.224736 
-0.135353 -0.014741 -0.200980 
-0.257579 -0.000664 -0.080015 
-0.379228 -0.004851 0.028200 
0.335156 -0.015426 0.008552 
-0.043903 0.003441 -0.136786 
0.405945 0.000613 -0.072703 
0.109087 -0.021335 0.220725 
0.268921 0.003057 -0.034011 
-0.143222 -0.028113 0.250779 
0.324867 0.021173 -0.110975 
-0.426779 0.001163 -0.064616 
0.105483 -0.015817 -0.080357 
0.163323 0.016927 -0.147443 
-0.457811 -0.026155 -0.166454 
0.072537 -0.022963 -0.075247 
-0.285261 0.013239 -0.098732 
-0.163849 -0.059331 0.211407 
-0.078262 -0.007807 -0.324398 
0.105862 -0.023595 0.180045 
0.194030 -0.029544 0.378404 
0.330200 -0.004185 -0.094409 
0.337759 -0.021540 0.194499 
-0.419219 -0.030257 0.057494 
-0.374765 0.001548 -0.157059 
0.046276 -0.025472 0.310578 
-0.359072 -0.008925 0.097023 
0.142011 -0.003714 -0.157372 
0.253150 -0.033315 0.241096 
0.185229 -0.011732 -0.137984 
0.096229 -0.004202 -0.183192 
0.136733 -0.024834 0.361289 
0.250389 -0.014507 0.186363 
0.342436 -0.027269 0.073170 
0.298283 -0.021364 0.088519 
0.308928 -0.019932 0.286382 
-0.496534 -0.005854 -0.047869 
0.193205 -0.018769 -0.031973 
0.263186 -0.020571 0.138843 
0.016789 -0.011138 -0.126865 
0.346431 -0.015428 -0.034104 
0.018254 -0.022574 0.284903 
0.203287 -0.017044 -0.147414 
-0.057567 -0.001065 -0.251873 
-0.000748 -0.017785 0.217425 
0.150961 -0.005897 0.337011 
0.516391 -0.003768 -0.035562 
0.114218 -0.020716 -0.049198 
0.146097 -0.013300 -0.202735 
0.234695 -0.015121 -0.154138 
-0.178082 -0.024427 0.183433 
0.073996 -0.021306 0.381242 
0.309417 -0.023531 0.044226 
0.364474 -0.033792 0.132221 
0.425268 -0.016157 0.057017 
0.088717 -0.034343 0.326037 
0.181106 -0.014147 0.402465 
0.228179 -0.028793 0.291048 
0.161114 -0.044732 0.371418 
-0.334281 -0.042183 0.135182 
-0.436559 -0.037517 0.081280 
0.471579 -0.022875 -0.038649 
0.376475 -0.017378 0.146636 
0.222639 -0.026859 0.413727 
0.277049 -0.038695 -0.145628 
0.305344 0.002556 0.226545 
0.315303 -0.031296 0.112387 
0.024190 -0.031909 0.233218 
0.340821 -0.010352 0.008291 
-0.478223 -0.009472 0.020285 
0.259720 -0.026732 0.133211 
0.124036 -0.009185 0.423895 
0.036564 -0.007617 0.373160 
-0.466244 -0.018763 0.041490 
-0.429713 -0.005060 0.046718 
-0.333113 -0.018561 0.042992 
-0.144113 -0.026012 0.253800 
0.195926 -0.021294 0.040839 
0.353648 -0.006510 0.090677 
0.088099 -0.028157 0.218703 
0.074169 -0.013992 0.276673 
0.064349 -0.029806 0.148206 
-0.557488 -0.031864 0.015306 
-0.555066 -0.017459 0.031646 
0.299250 -0.009739 -0.127844 
0.271710 -0.020537 -0.092862 
-0.506267 -0.039005 -0.005840 
0.349910 -0.008408 -0.114460 
0.225628 0.004417 -0.171496 
-0.528618 -0.007068 0.005501 
-0.352944 -0.012423 -0.022307 
-0.190946 -0.005430 0.246746 
-0.424011 -0.016466 -0.004378 
-0.014271 -0.015462 0.337739 
-0.378365 -0.024402 0.013071 
-0.467809 -0.008974 -0.022892 
-0.398533 -0.016779 -0.050485 
-0.513711 -0.026421 0.048736 
0.205680 -0.018566 -0.185564 
0.119095 -0.010827 -0.228904 
0.138635 -0.013113 -0.162881 
0.139516 -0.017882 0.370128 
0.182978 -0.016937 -0.140610 
0.306242 -0.023096 0.162219 
0.118313 -0.017957 0.298198 
0.367411 0.002195 0.217096 
0.260693 -0.010739 -0.164435 
0.103885 -0.042368 0.159152 
0.027656 -0.042134 -0.231125 
-0.496097 -0.028939 0.011184 
-0.315279 -0.036257 0.098289 
-0.358034 -0.032382 0.076297 
0.020765 -0.018183 -0.172200 
0.065994 -0.002109 -0.209177 
-0.508279 -0.017925 -0.054343 
-0.443451 -0.025919 -0.084279 
