-0.315073 -0.086026 -0.596336 
0.118734 -0.090862 -0.183322 
-0.032407 -0.087187 -0.379853 
0.103268 -0.099349 -0.369264 
0.025346 -0.076972 -0.384760 
0.022959 -0.099703 -0.416453 
-0.137054 -0.106533 -0.520563 
0.172442 -0.069495 -0.287632 
-0.483710 0.061963 -0.446989 
-0.279574 0.077248 -0.381461 
-0.655926 0.063804 -0.048108 
0.323632 -0.055504 -0.031566 
0.379396 -0.083745 -0.158983 
-0.626190 -0.041558 -0.146341 
0.246077 -0.039131 -0.198505 
0.340810 -0.055828 -0.161738 
0.392945 -0.051610 -0.118677 
-0.389337 -0.068657 -0.531360 
-0.247871 -0.042093 -0.458702 
-0.547707 -0.062349 -0.253854 
-0.165018 -0.037824 -0.402799 
-0.331235 -0.048268 -0.515628 
0.114486 -0.034296 -0.201702 
0.187906 -0.044649 -0.228276 
0.310236 -0.058420 -0.178840 
0.282874 -0.051200 -0.185411 
0.218114 -0.055546 -0.225664 
0.158022 -0.044592 -0.253007 
-0.068456 -0.040310 -0.351784 
-0.288822 -0.047303 -0.512030 
-0.200022 -0.045407 -0.460089 
0.312442 -0.029708 -0.015818 
0.232266 -0.047902 -0.151148 
0.120558 -0.076732 -0.308842 
0.020098 -0.065049 -0.346348 
0.028604 -0.045968 -0.306302 
-0.084387 -0.040677 -0.378174 
-0.156342 -0.064125 -0.448870 
0.310152 -0.038491 -0.094074 
0.284147 -0.070202 -0.036898 
-0.411407 -0.046276 -0.510580 
0.368650 -0.066925 -0.098080 
-0.236137 -0.059516 -0.483174 
-0.322621 -0.046443 -0.458286 
-0.365486 -0.045765 -0.486802 
-0.331865 -0.053960 -0.528307 
-0.035719 -0.062860 -0.316373 
-0.336676 -0.060383 -0.546721 
-0.155615 -0.052721 -0.424911 
-0.399199 -0.025914 -0.551373 
-0.415807 -0.031630 -0.443999 
0.048230 -0.057143 -0.257709 
-0.018858 -0.059918 -0.245154 
-0.124325 -0.065306 -0.370178 
-0.574762 -0.071917 -0.111846 
-0.485666 -0.073042 -0.061341 
-0.225396 -0.052983 -0.409275 
-0.399168 -0.055381 -0.512841 
-0.130992 -0.090975 -0.467602 
-0.025203 -0.108292 -0.434108 
-0.149206 -0.065400 -0.327191 
-0.203424 -0.089517 0.063253 
-0.530349 -0.027343 0.007069 
-0.582060 -0.072651 -0.177456 
-0.070286 -0.072949 -0.351594 
-0.393827 -0.057483 -0.515885 
-0.406870 -0.040643 -0.523882 
-0.327579 -0.068612 -0.557240 
-0.373958 -0.042690 -0.503968 
-0.366306 -0.056253 -0.540496 
-0.369540 -0.048805 -0.558806 
-0.485646 -0.066846 -0.328146 
-0.438861 -0.069166 -0.433191 
-0.220908 -0.077445 -0.490447 
-0.308139 -0.056932 -0.465638 
-0.606784 -0.058925 -0.165584 
-0.224022 -0.065864 -0.469718 
-0.382243 -0.052192 -0.443315 
-0.448071 -0.046327 -0.400404 
-0.498004 -0.049863 -0.275781 
-0.442828 -0.053038 -0.369527 
-0.247153 -0.060620 -0.502641 
-0.408760 -0.051335 -0.398419 
-0.592914 -0.070534 -0.170725 
-0.457073 -0.052701 -0.310505 
-0.273257 -0.063884 -0.519896 
-0.644256 -0.070653 -0.093456 
-0.413186 -0.060426 -0.469298 
-0.543396 -0.067710 -0.128504 
-0.299661 -0.083370 -0.533196 
-0.323988 -0.061259 -0.534791 
-0.494738 -0.063396 -0.341736 
-0.482075 -0.063920 -0.038608 
-0.310808 -0.062342 -0.487138 
-0.484316 -0.060320 0.015458 
-0.646777 -0.051933 -0.066293 
-0.494298 -0.052286 -0.149282 
-0.508974 -0.054894 -0.222925 
-0.539414 -0.073674 -0.037569 
-0.512160 -0.064715 -0.250346 
-0.542801 -0.068095 -0.256737 
-0.425581 -0.063509 -0.362990 
-0.464501 -0.056149 -0.198085 
-0.607772 -0.044644 -0.088123 
-0.509866 -0.039115 -0.019349 
-0.461449 -0.050579 -0.134357 
-0.436936 -0.072612 -0.453963 
-0.389266 -0.058803 -0.496983 
-0.386662 -0.056926 -0.466365 
-0.454843 -0.046020 -0.252334 
-0.478550 -0.061427 -0.271978 
-0.526509 -0.067896 -0.189683 
-0.560439 -0.076779 -0.099470 
-0.530214 -0.051959 -0.112802 
-0.387746 -0.071713 0.054321 
-0.461943 -0.062741 -0.367836 
-0.506924 -0.075514 -0.290253 
-0.456421 -0.075036 -0.391419 
-0.553849 -0.063266 -0.140573 
-0.363288 -0.073043 0.067021 
-0.552694 -0.045695 -0.054079 
-0.380872 -0.037747 -0.246560 
-0.614720 -0.064563 -0.108733 
-0.565691 -0.063081 -0.192577 
-0.570833 -0.056034 -0.151327 
-0.559926 -0.071325 -0.213185 
-0.360110 -0.058915 0.038450 
-0.503311 -0.081544 -0.309113 
-0.613562 -0.069230 -0.123456 
-0.538684 -0.050034 -0.001731 
-0.458985 -0.062677 -0.203274 
-0.536258 -0.078507 -0.279526 
-0.485690 -0.078539 -0.368261 
-0.557843 -0.038644 -0.217834 
-0.640000 -0.071937 -0.089382 
-0.448972 -0.079795 -0.430967 
-0.398168 -0.077393 -0.517952 
-0.588251 -0.069443 -0.057599 
-0.502756 -0.082123 -0.021506 
-0.538758 -0.087167 -0.232838 
-0.492155 -0.076430 -0.314638 
-0.629942 -0.023400 -0.141344 
-0.638099 -0.089080 -0.112536 
-0.596417 -0.076030 -0.111154 
-0.590815 -0.053473 -0.161329 
-0.575377 -0.054895 -0.096416 
-0.637341 -0.057463 -0.083013 
-0.456919 -0.080296 -0.004074 
-0.521174 -0.043137 -0.248042 
-0.596409 -0.063794 -0.061756 
-0.560036 -0.069202 -0.050774 
-0.559793 -0.086754 -0.231993 
-0.539529 -0.057658 -0.256003 
-0.309801 -0.053168 0.058807 
-0.361255 -0.052943 0.075877 
-0.235438 -0.062074 0.109447 
-0.544038 -0.051297 -0.175770 
-0.452738 -0.059917 -0.421387 
-0.471406 -0.057147 -0.350460 
-0.508548 -0.076778 -0.314461 
-0.413613 -0.035773 -0.426796 
-0.430180 -0.039843 -0.422021 
-0.379118 -0.045056 -0.512314 
-0.370035 -0.058156 -0.452362 
-0.150470 -0.069266 0.151876 
-0.192492 -0.048097 0.185219 
-0.421552 -0.059420 -0.365367 
-0.394451 -0.067680 -0.450367 
-0.405708 -0.068151 -0.514542 
-0.295304 -0.054623 -0.541761 
-0.161854 -0.057279 -0.430522 
-0.208840 -0.055723 -0.490962 
-0.340508 -0.059191 -0.533818 
-0.121850 -0.060398 -0.439296 
-0.319994 -0.038679 -0.551757 
-0.236208 -0.055091 -0.508408 
-0.051976 -0.052866 0.220182 
-0.435286 -0.057917 -0.452097 
-0.023941 -0.055071 0.275106 
-0.048288 -0.047722 -0.377649 
-0.099226 -0.041318 -0.287056 
-0.024586 -0.037565 -0.304683 
-0.056965 -0.062267 -0.312772 
-0.028266 -0.040701 -0.379832 
-0.078155 -0.070008 -0.384024 
-0.523912 -0.046370 -0.176765 
-0.046959 -0.052185 0.213388 
-0.573224 -0.057340 -0.171409 
-0.552104 -0.053984 -0.031666 
-0.135471 -0.044556 -0.426948 
-0.318024 -0.055829 -0.537866 
-0.178260 -0.049240 -0.468278 
-0.202795 -0.020781 0.137515 
-0.151101 -0.039396 -0.276483 
0.033427 -0.057985 -0.259196 
-0.442214 -0.060528 -0.358731 
-0.250945 -0.055450 -0.480775 
-0.363623 -0.058464 -0.528128 
-0.276749 -0.059273 -0.478215 
0.127389 -0.046285 -0.275577 
0.042624 -0.043409 -0.323418 
0.053519 -0.059049 -0.336817 
-0.069461 -0.061290 -0.238701 
-0.153911 -0.060567 0.085006 
0.146826 -0.037603 0.336109 
-0.612370 -0.075200 -0.135897 
-0.570355 -0.039248 -0.124357 
-0.598586 -0.070897 -0.138618 
-0.671346 -0.036976 -0.081476 
-0.618071 -0.047152 -0.050948 
-0.627544 -0.031888 -0.082976 
-0.270671 -0.062725 -0.526654 
-0.247753 -0.028938 -0.425280 
-0.104399 -0.046221 -0.488719 
0.003704 0.077033 0.297577 
-0.028960 -0.038766 0.224190 
-0.371211 -0.053434 -0.372243 
0.073854 -0.056578 -0.302554 
0.178149 -0.057965 0.221539 
0.250570 -0.046288 -0.161129 
-0.280880 -0.051711 -0.505719 
0.091821 -0.050028 -0.199246 
0.143447 -0.051232 -0.284010 
-0.298633 -0.052802 -0.468250 
-0.505244 -0.063503 -0.337658 
-0.539608 -0.058237 -0.238410 
-0.487949 -0.064207 -0.189273 
-0.509893 -0.053951 -0.274488 
-0.492217 -0.050929 -0.203551 
-0.102356 -0.052596 -0.401719 
0.318938 -0.057751 -0.035408 
-0.348426 -0.050909 -0.488543 
-0.347437 -0.050580 -0.455405 
-0.322182 -0.062136 -0.464758 
-0.144505 -0.052290 -0.451386 
-0.504731 -0.055000 -0.114656 
-0.454764 -0.052272 -0.200952 
0.010241 -0.071006 -0.333389 
-0.542320 -0.051408 -0.213073 
-0.527099 -0.057212 -0.147531 
0.056408 -0.036934 0.275901 
0.174464 -0.053651 0.234782 
-0.577402 -0.059825 -0.061014 
-0.349961 -0.050476 -0.377852 
-0.343390 -0.123518 -0.466963 
-0.527488 -0.088914 -0.137703 
-0.251373 -0.024387 -0.388641 
-0.430899 -0.023703 -0.185324 
-0.285841 -0.052608 0.123425 
0.259847 -0.055417 0.094263 
-0.485825 -0.052609 -0.042520 
-0.540904 -0.061310 -0.033226 
-0.562754 -0.048041 -0.034480 
-0.462176 -0.045611 -0.007012 
0.217285 -0.044875 -0.223662 
0.310220 -0.038594 -0.168500 
-0.184738 -0.044976 -0.042402 
-0.172722 -0.056004 0.019946 
0.338206 -0.028934 -0.092258 
0.265182 -0.052215 -0.018883 
0.403935 -0.030510 -0.110715 
0.370033 -0.005746 0.004550 
0.328507 0.008205 0.105811 
-0.420625 -0.061388 0.040840 
-0.437905 -0.049131 0.048428 
-0.527219 -0.045592 -0.001449 
0.162874 -0.037129 -0.014388 
-0.198668 -0.058616 0.061047 
0.246568 -0.033939 0.153883 
0.248578 -0.020708 -0.020550 
-0.410533 -0.031698 0.029490 
-0.152069 -0.053124 0.090141 
-0.192599 -0.073800 0.156319 
-0.223992 -0.058444 0.104939 
-0.133523 -0.054141 0.160126 
0.116597 -0.049754 0.246352 
0.124571 -0.063432 0.305796 
-0.274552 -0.068835 0.110680 
-0.198679 -0.056717 0.170563 
0.074015 -0.058710 0.319975 
0.135247 -0.049276 0.329566 
0.227672 -0.059748 0.053197 
0.183949 -0.051714 0.226408 
-0.018392 -0.052816 0.165095 
0.208053 -0.053711 0.182383 
0.133217 -0.061020 0.190288 
0.194213 -0.024401 0.064657 
0.150840 -0.067109 0.258837 
-0.005244 -0.060529 0.229331 
0.088034 -0.055128 0.286581 
0.011163 -0.067281 0.290078 
0.104359 -0.065788 0.345603 
0.070518 -0.054300 0.295695 
0.033550 -0.064206 0.253622 
0.236922 -0.035664 0.161517 
0.173655 -0.068161 0.199043 
0.241071 -0.059250 0.121496 
-0.143596 -0.045614 0.175160 
0.100163 -0.062826 0.270082 
0.161852 -0.048071 0.193847 
-0.099213 -0.042525 0.203884 
-0.050585 -0.063352 0.201712 
-0.112751 -0.061577 0.216663 
0.131602 -0.078390 0.144609 
0.190854 -0.071065 0.089834 
0.235399 -0.058442 0.100298 
0.142191 -0.064703 0.044360 
0.065823 -0.059179 0.210002 
0.171914 -0.054173 0.144408 
0.130856 -0.062225 0.189562 
0.070987 -0.059268 0.098264 
0.081103 -0.045523 0.337458 
0.175818 -0.043777 0.161295 
0.127590 -0.065710 0.293027 
0.118758 -0.054775 0.127961 
0.204583 -0.063339 0.175760 
-0.376536 -0.071502 0.055172 
-0.043804 -0.069919 0.186023 
-0.331074 -0.065107 0.090465 
-0.137282 -0.051510 0.174211 
-0.229283 -0.055422 0.117983 
-0.503863 -0.051291 -0.000525 
-0.533374 -0.059089 -0.036440 
-0.502926 -0.064329 -0.125361 
-0.434510 -0.061415 -0.140355 
-0.318206 -0.073729 -0.254790 
-0.550888 -0.072215 -0.053143 
-0.440318 -0.060042 -0.025102 
-0.526760 -0.050806 -0.062349 
-0.397009 -0.075186 -0.128175 
-0.479100 -0.067021 -0.169835 
-0.402776 -0.055032 -0.177944 
-0.593363 -0.059488 -0.059111 
-0.544599 -0.060042 -0.145112 
-0.460429 -0.060012 0.012486 
-0.518028 -0.050566 -0.179930 
-0.364839 -0.064029 -0.162742 
-0.466258 -0.046584 -0.258709 
-0.220420 -0.069575 -0.022169 
-0.398739 -0.063479 -0.003690 
-0.587484 -0.075382 -0.195811 
-0.258404 -0.052668 0.086568 
-0.620492 -0.038946 -0.113147 
-0.455816 -0.050868 -0.084475 
-0.492927 -0.050133 -0.219800 
-0.414858 -0.047152 0.054991 
-0.589841 -0.041720 -0.138410 
-0.350114 -0.050292 -0.262028 
-0.289284 -0.067509 0.105238 
-0.571776 -0.050045 -0.082903 
-0.434083 -0.066903 -0.446421 
-0.527382 -0.064579 -0.272269 
-0.583766 -0.052740 -0.162669 
-0.437044 -0.038574 -0.401217 
-0.221015 -0.048364 0.159383 
-0.524412 -0.042379 -0.303019 
-0.574838 -0.037967 -0.203476 
-0.529700 -0.040173 -0.161036 
-0.578144 -0.045696 -0.035230 
-0.527851 -0.067690 -0.159209 
-0.510095 -0.041257 -0.202465 
-0.490894 -0.043520 -0.139845 
-0.564329 -0.044936 -0.113584 
-0.563395 -0.068906 -0.225506 
-0.662136 -0.042294 -0.073601 
-0.540337 -0.042166 -0.190979 
-0.592743 -0.043245 -0.102148 
-0.508449 -0.033702 0.021621 
-0.600301 -0.036987 -0.033553 
-0.519109 -0.049204 -0.278781 
-0.479152 -0.042047 -0.248633 
-0.280962 -0.058641 -0.066069 
-0.344814 -0.086221 0.054784 
-0.479854 -0.041750 -0.319696 
-0.416263 -0.044585 -0.346230 
-0.424134 -0.051742 -0.315392 
-0.437113 -0.043420 -0.372469 
-0.409283 -0.044878 -0.381099 
-0.488763 -0.043500 -0.282834 
-0.462405 -0.048188 -0.297467 
-0.388824 -0.047267 -0.468229 
-0.470980 -0.045122 -0.147308 
-0.323653 -0.041542 0.049499 
-0.437389 -0.042007 -0.298678 
-0.433361 -0.051755 -0.350948 
-0.382013 -0.045231 -0.430850 
-0.476214 -0.052535 -0.227000 
-0.535796 -0.037004 0.006203 
-0.537789 -0.032859 -0.026261 
-0.394621 -0.055115 -0.401735 
-0.521389 -0.038225 -0.115089 
-0.381183 -0.052746 -0.512939 
-0.368044 -0.049416 -0.440693 
-0.335380 -0.021161 -0.576317 
-0.308252 -0.046664 -0.226330 
-0.444863 -0.049485 -0.230924 
-0.634498 -0.047232 -0.063664 
-0.471086 -0.046765 -0.390443 
-0.373288 -0.052138 -0.404512 
-0.432516 -0.053294 -0.424750 
-0.349027 -0.049714 -0.372539 
-0.534872 -0.050338 -0.242130 
-0.587746 -0.055760 -0.159354 
-0.503021 -0.057104 -0.112471 
-0.415516 -0.041826 0.000673 
-0.536442 -0.016541 -0.034361 
-0.414329 -0.044848 -0.309162 
-0.609808 -0.047667 -0.118296 
0.144228 -0.036661 0.369847 
-0.374765 -0.067488 -0.533601 
0.465538 -0.018954 -0.097498 
0.382098 -0.029447 -0.150140 
0.017087 -0.081767 -0.368450 
0.267107 -0.051190 0.097798 
-0.261759 -0.041485 -0.486396 
0.279459 -0.084579 -0.042352 
0.179750 -0.085477 0.136633 
0.324730 -0.045279 0.017497 
0.240876 -0.048490 0.145771 
0.335909 -0.051885 -0.038392 
-0.010280 -0.103742 0.181627 
0.231433 -0.028357 0.133559 
0.325316 0.022641 0.157601 
-0.140871 -0.066151 0.233600 
0.290625 -0.048246 0.054564 
0.138289 -0.057212 0.308579 
0.439317 -0.036420 -0.038074 
0.328837 -0.044137 0.135395 
0.267600 -0.052034 0.222189 
0.106895 -0.062225 0.224025 
0.039136 -0.043838 0.308917 
0.203810 -0.065000 0.171235 
0.087694 -0.059153 0.264001 
0.386871 -0.044843 0.042057 
-0.031615 -0.054432 -0.392453 
0.060926 -0.049317 -0.334371 
-0.404476 -0.059287 -0.381099 
-0.412764 -0.052740 -0.354493 
-0.419247 -0.060159 -0.450151 
-0.473628 -0.044971 -0.329204 
-0.472793 -0.063503 -0.365603 
-0.424065 -0.049983 -0.418426 
-0.358107 -0.049397 -0.532560 
-0.395662 -0.075990 -0.516885 
0.163429 -0.031033 -0.275234 
0.433908 -0.027852 -0.115366 
-0.524830 -0.063745 -0.278303 
-0.510120 -0.048411 -0.178407 
-0.442537 -0.048787 0.011683 
-0.579375 -0.069271 -0.194136 
-0.298443 -0.046188 -0.536184 
-0.118335 -0.050330 -0.443529 
-0.024902 -0.057421 -0.332336 
0.070913 -0.046863 -0.272651 
0.157834 -0.029895 -0.258590 
-0.631669 -0.069596 -0.106475 
-0.283187 -0.062171 0.102706 
-0.367133 -0.061161 0.052610 
-0.539905 -0.063458 -0.254674 
-0.362534 -0.052877 -0.439929 
-0.376543 -0.073317 -0.465739 
-0.558701 -0.051357 -0.103605 
-0.026609 -0.042486 -0.381460 
-0.563549 -0.048269 -0.092285 
-0.475533 -0.056201 -0.056541 
-0.230734 -0.065635 -0.494508 
-0.414436 -0.061000 -0.370846 
-0.074981 -0.039702 -0.302043 
-0.545996 -0.067141 -0.054707 
-0.463820 -0.057667 -0.282398 
0.376338 -0.006448 -0.149184 
-0.193990 -0.052203 -0.431005 
0.107353 -0.034666 -0.193010 
-0.468146 -0.039687 -0.032894 
-0.203921 -0.041329 -0.491571 
-0.446324 -0.054766 -0.202656 
-0.462824 -0.052132 -0.268842 
-0.424493 -0.044622 -0.317986 
-0.379869 -0.051474 -0.409459 
-0.182792 -0.056214 0.161490 
-0.533466 -0.058893 -0.048298 
-0.474167 -0.060875 -0.059103 
-0.582728 -0.075303 -0.198879 
-0.516678 -0.060648 -0.274481 
-0.468466 -0.052226 -0.337682 
-0.467622 -0.061655 -0.363342 
-0.412492 -0.050247 -0.423357 
-0.524998 -0.056654 -0.254529 
-0.375200 -0.064441 -0.522635 
-0.560051 -0.060152 -0.111774 
-0.542693 -0.078410 -0.100939 
-0.415608 -0.064232 -0.453499 
-0.308201 -0.066273 -0.558150 
-0.357036 -0.054051 -0.532738 
0.105581 -0.070920 0.323886 
-0.408564 -0.065835 -0.387131 
-0.491006 -0.056849 -0.120144 
-0.454590 -0.056334 -0.278400 
-0.351701 -0.062809 -0.475619 
-0.366268 -0.066488 -0.458733 
0.022112 -0.070258 -0.410969 
-0.409510 -0.060699 -0.366808 
-0.506540 -0.050606 -0.315218 
-0.580925 -0.054010 -0.136258 
-0.433178 -0.058393 -0.407611 
-0.487750 -0.061389 -0.323199 
-0.543453 -0.067698 -0.237565 
-0.289221 -0.071845 0.091062 
0.070515 -0.060939 0.304493 
-0.041831 -0.062232 -0.399978 
-0.394638 -0.062390 -0.300392 
-0.375255 -0.073357 0.038549 
-0.451774 -0.075415 -0.238255 
-0.372350 -0.070486 -0.545536 
-0.468602 -0.064742 -0.367127 
-0.326480 -0.078160 -0.553418 
-0.409234 -0.068143 -0.390898 
-0.560697 -0.059781 -0.105959 
-0.529595 -0.062829 -0.259069 
-0.577462 -0.082382 -0.140782 
-0.509987 -0.068492 -0.211913 
-0.479027 -0.062673 -0.347917 
-0.435106 -0.072023 -0.439563 
-0.496197 -0.070926 -0.146042 
-0.450385 -0.063752 -0.001818 
-0.095499 -0.067252 -0.417096 
-0.293991 -0.071878 -0.495719 
-0.462960 -0.070979 -0.304197 
0.351151 -0.064702 0.007021 
0.345969 -0.068415 0.004046 
0.331416 -0.078061 -0.006755 
-0.616155 -0.064829 -0.151362 
-0.053923 -0.072752 -0.407264 
-0.340854 -0.066226 -0.498468 
0.132528 -0.056370 0.344700 
0.058588 -0.069567 0.294155 
-0.512535 -0.057669 -0.322194 
-0.193340 -0.079855 -0.497065 
-0.394685 -0.058109 -0.471559 
-0.342743 -0.059534 -0.559178 
-0.369123 -0.048190 -0.487991 
-0.453032 -0.063479 -0.393649 
-0.502905 -0.063268 -0.302028 
0.329304 -0.079290 -0.007901 
0.366139 -0.056287 -0.181408 
-0.321596 -0.059635 -0.588250 
-0.336050 -0.062725 -0.619789 
0.037816 -0.060059 -0.404253 
0.049757 -0.061066 -0.348420 
0.048658 -0.075575 0.285894 
0.212596 -0.093949 0.157052 
-0.428786 -0.076083 -0.379014 
-0.453565 -0.053879 -0.404516 
-0.558800 -0.054698 -0.230566 
-0.478003 -0.052454 -0.313824 
0.391733 -0.043753 0.034742 
-0.372339 -0.070533 -0.462593 
-0.500110 -0.066705 -0.031437 
-0.476679 -0.058421 -0.342187 
-0.501258 -0.051459 -0.182226 
-0.396085 -0.047090 -0.487184 
-0.521010 -0.076463 -0.220121 
-0.529245 -0.063613 -0.262518 
0.159067 -0.071747 -0.333180 
-0.089714 -0.064571 -0.416565 
-0.584572 -0.067351 -0.082587 
-0.483619 -0.066283 -0.258580 
-0.434504 -0.054371 -0.207468 
-0.533637 -0.057527 -0.229349 
-0.001366 -0.062704 -0.365041 
-0.354273 -0.058151 -0.585113 
-0.370972 0.009327 -0.223845 
-0.197120 -0.063682 -0.439261 
-0.450840 -0.062425 0.000005 
-0.312091 -0.043665 -0.390251 
-0.547766 -0.056449 -0.113977 
-0.374005 -0.051744 -0.308545 
-0.022525 -0.051636 -0.392247 
-0.328733 -0.078589 -0.552959 
0.285913 -0.078756 0.089541 
-0.463822 -0.059039 -0.361460 
-0.557022 -0.072988 -0.162503 
-0.608769 -0.056886 -0.143645 
-0.356067 -0.053618 -0.535826 
0.406654 -0.052030 -0.136574 
-0.545597 -0.036339 -0.074447 
0.374215 -0.060706 -0.107731 
-0.576950 -0.055955 -0.066149 
-0.405530 -0.052610 -0.445984 
-0.514811 -0.042176 -0.238140 
-0.503301 -0.063161 -0.208085 
-0.484756 -0.062168 -0.139224 
0.227377 -0.063766 0.120864 
0.207815 -0.065826 0.163460 
0.156628 -0.050967 0.316569 
0.361752 -0.052814 -0.182060 
-0.440508 -0.053474 0.013303 
-0.474469 -0.057880 -0.052374 
-0.147503 -0.067555 0.174316 
-0.576904 -0.053967 -0.027959 
-0.634804 -0.032175 -0.074536 
0.182365 -0.062615 0.208942 
-0.177708 -0.055977 0.163848 
-0.127668 -0.062091 -0.451877 
-0.304646 -0.059127 -0.548543 
0.091967 -0.052335 0.322348 
0.247279 -0.071626 0.071109 
-0.331613 -0.029655 -0.563458 
0.300981 -0.077908 -0.076032 
-0.309688 -0.084770 -0.510827 
0.035136 -0.070933 -0.363671 
-0.046199 -0.065955 -0.408431 
-0.465930 -0.049849 -0.333416 
-0.569095 -0.064805 -0.192400 
0.360067 -0.063473 -0.093105 
-0.365119 -0.050978 -0.509822 
-0.461558 -0.065673 -0.292572 
-0.492882 -0.047401 -0.184125 
-0.454337 -0.051896 -0.271005 
-0.311184 -0.070459 -0.566842 
-0.407198 -0.055527 -0.363069 
-0.350926 -0.048471 -0.444579 
-0.360119 -0.071561 -0.484062 
0.224430 -0.033795 -0.052681 
-0.523334 -0.047255 -0.027745 
0.153223 -0.026072 0.199464 
-0.220966 -0.065781 -0.512415 
-0.213942 -0.055235 -0.494882 
-0.456061 -0.063911 -0.298531 
-0.267154 -0.038084 -0.451667 
-0.328243 -0.045340 -0.371057 
-0.279582 -0.027669 -0.511682 
0.209124 -0.042713 -0.064154 
-0.482080 -0.051302 -0.005966 
0.134572 -0.039044 0.183509 
-0.468825 -0.051355 -0.238157 
0.184122 -0.051430 0.269135 
-0.557541 -0.041072 -0.043308 
0.138332 -0.035530 0.186385 
0.260808 -0.062377 -0.247217 
-0.557545 -0.052728 -0.234361 
-0.453722 -0.053692 -0.406046 
-0.509223 -0.054736 -0.327263 
-0.353588 -0.053964 -0.585524 
-0.388312 -0.068935 -0.506828 
0.043326 -0.053697 -0.400503 
-0.328422 -0.048764 -0.610309 
-0.080020 -0.055890 -0.467282 
-0.342656 -0.056484 -0.561885 
-0.478941 -0.054163 -0.310852 
-0.413784 -0.032519 -0.370277 
-0.327342 -0.057589 -0.588714 
-0.009595 -0.058783 -0.425323 
0.019109 -0.048325 -0.427242 
-0.515905 -0.058069 -0.158997 
0.177826 -0.053932 -0.325188 
-0.048528 -0.057682 -0.469731 
0.154700 -0.036555 -0.339916 
-0.640258 -0.039568 -0.082007 
-0.165346 -0.049431 -0.517857 
0.385110 -0.061609 -0.148094 
0.274179 -0.030697 0.172879 
-0.527910 -0.056369 -0.147501 
-0.618720 -0.042043 -0.114853 
-0.304978 -0.050317 -0.016736 
0.324140 -0.066046 -0.066227 
0.312349 -0.064391 -0.207978 
-0.347982 -0.048597 -0.451952 
-0.535818 -0.068288 -0.240685 
-0.142755 -0.064346 0.174486 
0.389723 -0.043566 -0.069959 
-0.471062 -0.064091 -0.067917 
-0.369225 -0.059514 -0.426625 
-0.398485 -0.028785 -0.295989 
-0.353025 -0.067761 -0.509249 
0.193382 -0.083908 0.130412 
-0.271882 -0.047324 -0.476568 
-0.394949 -0.058537 -0.410208 
-0.450029 -0.065449 -0.332353 
-0.486977 -0.050999 -0.228203 
-0.461001 -0.050215 -0.243288 
-0.011564 -0.041713 -0.385828 
-0.262502 -0.063077 -0.543623 
-0.357625 -0.057103 -0.448697 
-0.407868 -0.053875 -0.359349 
-0.347085 -0.053309 -0.352652 
0.147889 -0.074854 0.231484 
-0.307907 -0.059374 -0.549492 
-0.418908 -0.056828 -0.426840 
0.347720 -0.067949 -0.101745 
0.129840 -0.068361 0.285741 
0.315810 -0.056365 -0.002070 
-0.532051 -0.069648 -0.092435 
-0.504040 -0.056992 -0.196431 
-0.402862 -0.050077 -0.488033 
-0.513152 -0.054011 -0.156047 
0.197556 -0.051339 0.223392 
-0.101021 -0.064120 -0.418431 
0.318895 -0.068891 -0.068501 
-0.519880 -0.045168 -0.037545 
0.298679 -0.081784 -0.090855 
0.194420 -0.054516 0.218533 
-0.607558 -0.059696 -0.147752 
-0.318139 -0.049469 -0.514286 
-0.354681 -0.071587 -0.505463 
-0.441875 -0.041533 -0.394194 
-0.454531 -0.050261 -0.268566 
-0.585357 -0.073457 -0.092710 
-0.113612 -0.052062 -0.446837 
-0.368791 -0.055305 -0.511635 
-0.292024 -0.042738 -0.526119 
-0.447332 -0.062042 0.000290 
0.250567 -0.068271 0.068369 
0.288292 -0.055296 0.043304 
0.213503 -0.061350 0.170165 
-0.495670 -0.043615 -0.177437 
-0.447553 -0.064015 -0.217943 
0.142701 -0.051538 -0.294586 
-0.007791 -0.053694 -0.250941 
-0.049860 -0.049967 -0.353991 
0.063772 -0.070690 -0.326552 
-0.296548 -0.054662 -0.552877 
-0.300047 -0.065374 -0.476067 
-0.324701 -0.070206 0.065775 
-0.413428 -0.053208 -0.334126 
-0.445008 -0.052712 -0.173778 
0.073610 -0.044922 -0.338560 
-0.269015 -0.050591 -0.484592 
-0.185778 -0.064164 0.149828 
-0.352962 -0.066395 -0.392123 
-0.311063 -0.065611 -0.366706 
-0.166630 -0.056886 -0.484796 
-0.519013 -0.049568 -0.248813 
0.293566 -0.024170 0.168808 
0.381719 -0.044014 -0.172105 
-0.259090 -0.051737 -0.511751 
0.201136 -0.043814 -0.306060 
-0.019037 -0.055249 -0.428170 
0.295598 -0.055264 -0.075097 
-0.328751 -0.052970 -0.281749 
-0.460849 -0.046619 -0.150926 
0.058732 -0.072314 0.288344 
-0.481780 -0.035899 -0.058422 
-0.106250 -0.059098 -0.386855 
-0.374854 -0.039622 -0.277835 
0.233132 -0.050162 -0.241193 
-0.505923 -0.079347 -0.049100 
-0.532550 -0.046358 -0.134428 
-0.481592 -0.035057 -0.056585 
-0.330027 -0.058567 -0.403014 
-0.191285 -0.055958 -0.436251 
-0.298842 -0.034817 -0.293832 
-0.386889 -0.064779 -0.320526 
-0.394231 -0.054058 -0.381059 
-0.349122 -0.060212 -0.473388 
-0.422557 -0.068505 -0.164918 
-0.189827 -0.035580 -0.482610 
0.397797 -0.053475 -0.138336 
0.151818 -0.039812 0.249107 
-0.332743 -0.049436 0.035365 
-0.558641 -0.055446 -0.183976 
-0.096560 -0.043182 -0.354697 
-0.476280 -0.059110 -0.340900 
-0.017825 -0.058175 -0.335196 
0.187178 -0.047809 -0.251163 
-0.241731 -0.035635 -0.494373 
-0.558277 -0.061673 -0.113673 
0.122806 -0.089980 0.216058 
0.462934 -0.030889 -0.133163 
-0.269783 -0.027153 -0.529081 
-0.321558 -0.021627 -0.562610 
0.395561 -0.045813 -0.093479 
-0.367804 -0.015249 -0.461196 
-0.525961 -0.058633 -0.252354 
-0.560172 -0.055078 -0.097800 
-0.118605 -0.052063 -0.440638 
-0.342048 -0.046094 -0.350199 
-0.648061 -0.054400 -0.099626 
-0.016946 -0.038763 -0.369578 
-0.095802 -0.051150 -0.380432 
-0.278756 -0.047717 -0.459269 
-0.477395 -0.053581 -0.133924 
-0.544288 -0.051443 -0.113807 
-0.361125 -0.061172 0.051334 
-0.312913 -0.057875 -0.434836 
-0.515623 -0.050635 -0.070599 
-0.342582 -0.047196 -0.455761 
-0.447192 -0.061751 0.003365 
-0.456145 -0.050204 -0.060364 
-0.419952 -0.046913 -0.217742 
-0.457965 -0.065684 -0.297703 
-0.573989 -0.044557 -0.027017 
0.395942 -0.015206 -0.087115 
0.426348 -0.038207 -0.127098 
-0.492220 -0.057352 -0.117829 
-0.271747 -0.034692 -0.541155 
-0.570458 -0.056096 -0.071405 
-0.650524 -0.057247 -0.108590 
-0.443708 -0.072401 -0.338728 
-0.261211 -0.045679 -0.480889 
-0.334938 -0.051321 -0.469233 
-0.490698 -0.052064 -0.203339 
-0.578263 -0.059109 -0.167105 
-0.297979 -0.061426 -0.546808 
-0.469235 -0.053353 -0.046517 
-0.485910 -0.051807 -0.013008 
-0.484320 -0.055748 -0.022836 
-0.597274 -0.047477 -0.132476 
-0.572350 -0.059957 -0.077026 
-0.596426 -0.055756 -0.117376 
-0.491157 -0.062050 -0.130663 
-0.322566 -0.056075 -0.500812 
-0.426392 -0.028095 -0.258889 
0.088774 -0.053970 0.315556 
-0.550998 -0.050982 -0.098411 
0.091785 -0.050472 0.320326 
0.189758 -0.056429 0.213317 
-0.247320 -0.085536 -0.497866 
-0.472648 -0.060822 -0.344286 
-0.380881 -0.009851 -0.595680 
0.058787 -0.070677 0.301427 
0.425219 -0.043154 -0.128325 
0.363435 -0.068003 -0.103528 
0.142140 -0.050320 0.351309 
-0.028091 -0.056007 -0.392096 
-0.427885 -0.073200 -0.450645 
-0.366427 -0.064766 -0.538845 
-0.615589 -0.067415 -0.144058 
-0.408143 -0.051281 -0.431524 
-0.574658 -0.060348 -0.169229 
-0.385027 -0.074680 -0.523372 
-0.502413 -0.048420 -0.265873 
-0.437960 -0.041270 -0.355245 
-0.500378 -0.056573 -0.197079 
-0.492298 -0.065098 -0.129666 
-0.494921 -0.062251 -0.020935 
-0.599900 -0.063431 -0.120046 
0.185483 -0.080917 0.150504 
0.352575 -0.064724 -0.177902 
0.190692 -0.056606 0.213991 
0.255211 -0.105668 -0.080577 
-0.589954 -0.065863 -0.144095 
-0.309079 -0.081931 -0.481747 
0.220844 -0.059527 0.279728 
-0.513102 -0.048958 -0.251856 
0.299421 -0.074925 -0.020371 
-0.523783 -0.051699 -0.042722 
-0.646618 -0.051985 -0.102170 
0.335831 -0.045475 -0.182535 
-0.005095 -0.054952 0.263728 
-0.545971 -0.057085 -0.116860 
-0.482093 -0.066503 -0.257198 
-0.447773 -0.055930 -0.284795 
0.432958 -0.039760 -0.129234 
0.064870 -0.050330 -0.351570 
-0.476671 -0.039208 -0.189861 
-0.336252 -0.042364 0.070064 
-0.585755 -0.047661 -0.117559 
-0.539692 -0.040694 -0.220868 
-0.339667 -0.048356 -0.583717 
-0.566140 -0.036547 -0.126573 
0.266305 -0.036553 0.193338 
-0.070909 -0.051123 -0.409238 
-0.410403 -0.070582 -0.391698 
-0.432425 -0.060372 -0.226641 
-0.441448 -0.042738 -0.399819 
-0.397725 -0.050231 -0.492008 
-0.490180 -0.040544 -0.311022 
-0.599304 -0.049190 -0.138930 
-0.438748 -0.053756 0.008442 
0.092993 -0.051226 0.319934 
0.314226 -0.075506 -0.067065 
0.181307 -0.066689 0.200555 
0.092814 -0.051386 0.319334 
0.329764 -0.067112 -0.063094 
0.087350 -0.054672 0.314245 
0.181029 -0.065475 0.199877 
-0.484390 -0.049818 -0.293734 
0.180634 -0.066558 0.200303 
-0.343373 -0.041096 -0.511118 
-0.320709 -0.040030 -0.460408 
-0.536445 -0.050174 -0.208716 
-0.462622 -0.040587 -0.307564 
-0.518901 -0.043863 -0.220676 
-0.464130 -0.065327 -0.288666 
0.378325 -0.050620 -0.178624 
0.180595 -0.065681 0.201148 
-0.447466 -0.054314 -0.291428 
0.329718 -0.066938 -0.062882 
0.335554 -0.064416 -0.061552 
0.335001 -0.064913 -0.061835 
0.335317 -0.064511 -0.062022 
-0.447616 -0.057970 0.001775 
-0.343958 -0.047186 0.065413 
0.018094 -0.055266 -0.404438 
-0.509905 -0.052180 -0.323017 
-0.096596 -0.041968 -0.443105 
-0.132961 -0.038545 -0.478848 
-0.016165 -0.046479 -0.392530 
0.113806 -0.022378 -0.326081 
