-0.314053 -0.034180 -0.456909 
-0.225859 -0.047449 -0.554959 
0.400682 -0.029133 -0.192073 
-0.158082 -0.018671 -0.488037 
0.152700 -0.018212 -0.387925 
-0.002933 -0.042258 -0.442419 
0.118364 -0.040523 -0.414414 
0.109721 -0.026894 -0.402045 
-0.490765 -0.048959 -0.127561 
-0.393457 -0.053775 -0.021134 
-0.077473 -0.018887 -0.375740 
-0.056259 -0.055328 -0.418912 
0.082481 -0.025973 -0.345339 
0.163289 -0.043228 -0.383619 
-0.395408 -0.032202 -0.216116 
-0.473276 -0.028697 -0.171097 
0.482650 -0.038895 -0.033910 
-0.347216 -0.044171 -0.209661 
0.281312 -0.066527 0.326626 
-0.357449 -0.069834 -0.346943 
0.403233 -0.030039 -0.195347 
0.513286 -0.047919 -0.086069 
-0.519772 -0.053305 -0.063372 
0.117667 -0.043846 -0.414220 
0.474384 -0.056045 -0.011643 
0.459870 -0.032342 -0.091814 
0.287083 0.028440 -0.281303 
-0.194972 -0.050008 -0.476072 
0.350709 -0.074273 -0.218211 
0.362046 -0.013058 -0.122467 
-0.160112 -0.039634 -0.445978 
0.322136 -0.042057 -0.256546 
0.131270 0.000583 -0.333948 
0.480838 -0.012353 -0.102441 
0.299672 -0.068297 0.273718 
-0.291739 -0.010395 -0.334579 
-0.285275 -0.048414 -0.402557 
0.380333 -0.046024 -0.163258 
-0.275991 -0.047584 -0.340957 
0.026266 -0.014080 -0.471588 
-0.530285 -0.007963 -0.088997 
-0.445048 -0.037566 -0.214954 
0.413325 0.052653 0.142646 
0.512092 -0.064479 -0.056739 
-0.333937 -0.048084 -0.315147 
-0.290197 -0.072802 -0.396630 
0.503698 -0.105766 -0.091532 
-0.338420 -0.045765 -0.402579 
-0.166025 -0.017354 -0.480029 
-0.301602 -0.035676 -0.385998 
0.260166 -0.035034 0.345731 
0.569133 0.030571 -0.096440 
-0.473933 -0.038947 -0.099391 
-0.275942 -0.057057 -0.415428 
0.300338 -0.059551 -0.223441 
-0.005349 0.008594 -0.439977 
0.141178 -0.017296 -0.387309 
0.270376 -0.086428 0.402810 
-0.302747 -0.061277 -0.379782 
0.409628 -0.057817 0.128238 
0.311879 -0.032155 -0.243911 
0.114614 -0.046226 -0.414264 
0.153095 -0.035416 -0.378828 
-0.313702 -0.060674 -0.425678 
-0.518183 -0.015391 -0.040855 
-0.307813 -0.057158 -0.377276 
-0.421966 -0.059927 -0.156764 
-0.216481 -0.022653 -0.462848 
-0.117762 -0.031207 -0.423276 
0.031467 -0.055072 -0.367309 
-0.254072 -0.062393 -0.550197 
0.150883 -0.054078 -0.349525 
0.466926 -0.050264 -0.003265 
0.506615 -0.050765 -0.100129 
0.472032 -0.045192 -0.122552 
0.491584 -0.033843 -0.147473 
0.090855 -0.048062 -0.367705 
0.215619 0.006040 -0.216596 
0.209281 -0.049348 -0.357762 
0.227613 -0.031479 -0.350753 
-0.409072 -0.054276 -0.193588 
-0.276525 -0.055449 -0.416897 
-0.214531 -0.062833 -0.336806 
0.487744 -0.053547 -0.055189 
0.273440 -0.065313 0.328985 
-0.408052 -0.053621 -0.194447 
-0.352654 -0.050837 0.007972 
-0.303527 -0.044733 0.104749 
-0.469897 -0.015920 -0.196487 
-0.143843 -0.065036 -0.358159 
-0.056149 -0.052853 -0.424031 
-0.141365 -0.055829 -0.473059 
0.201655 -0.033058 -0.261045 
-0.353598 -0.067495 -0.342060 
0.385561 -0.046690 -0.174630 
0.418781 -0.053408 0.083395 
-0.405458 -0.057543 -0.198226 
-0.175748 -0.051935 0.106584 
-0.303023 -0.051574 -0.080587 
-0.118289 -0.057404 0.010897 
-0.275288 -0.067631 -0.320488 
-0.403838 -0.041419 -0.119275 
-0.436392 -0.057915 -0.046129 
-0.048449 -0.044824 0.185308 
-0.467158 -0.058568 -0.013800 
0.317510 -0.047756 0.266348 
0.214767 -0.124824 0.242356 
0.118662 -0.057532 -0.207131 
-0.201713 -0.065359 -0.447456 
-0.180704 -0.016852 -0.432927 
0.030604 -0.061478 -0.373419 
0.108719 -0.036791 -0.290923 
0.393809 -0.074574 -0.196538 
0.420295 -0.037509 -0.206044 
-0.318795 -0.029963 0.023433 
-0.383930 -0.053674 0.039428 
0.502966 -0.005357 -0.132210 
-0.516271 -0.047320 -0.068448 
0.434571 -0.063619 0.149336 
-0.156287 -0.032069 -0.504114 
-0.013741 -0.032795 -0.426795 
-0.404535 -0.059402 -0.200107 
-0.299698 -0.038597 0.003829 
-0.086713 -0.049138 0.158863 
-0.001880 -0.045315 0.213132 
-0.267830 -0.050527 0.059097 
-0.403539 -0.057041 -0.281039 
0.021298 -0.049318 -0.244818 
0.184259 -0.054791 -0.222454 
-0.187416 -0.042175 -0.406637 
-0.182536 -0.054906 -0.191217 
-0.269769 -0.049242 -0.345634 
-0.085050 -0.022424 -0.383067 
0.300918 -0.050869 -0.227883 
-0.304088 -0.074427 -0.346620 
0.018198 -0.037228 -0.341970 
0.185466 -0.016313 -0.228365 
0.367303 -0.049332 0.176366 
0.399692 -0.034434 -0.078863 
-0.030726 0.034028 -0.429337 
-0.306250 -0.051080 -0.465924 
-0.114650 -0.036657 -0.483802 
-0.404149 -0.057841 -0.200045 
-0.238586 -0.057934 -0.399537 
0.246808 -0.031387 -0.224520 
-0.356443 -0.039637 -0.207334 
-0.018836 -0.042493 -0.376105 
0.052853 -0.053856 -0.291205 
-0.127227 -0.061109 -0.404142 
0.338064 -0.032651 -0.174258 
0.330068 -0.071761 -0.164758 
0.396740 -0.040158 0.146704 
0.498999 -0.055066 -0.056130 
0.473047 -0.030259 -0.094429 
0.215300 0.034234 -0.338089 
0.209392 -0.062696 -0.275846 
-0.417452 -0.056462 -0.243520 
-0.439157 -0.024999 -0.179497 
-0.115515 -0.050114 0.191658 
-0.031549 -0.046282 0.244334 
-0.214737 -0.040952 0.149508 
-0.065456 -0.053989 0.212164 
-0.455194 -0.064886 -0.019538 
0.064510 -0.031765 -0.324535 
-0.007719 -0.040691 -0.313284 
-0.050145 -0.096316 -0.292767 
0.437025 -0.088044 -0.175350 
0.459035 -0.078070 -0.158321 
0.326473 -0.047771 -0.195823 
0.395515 -0.034541 -0.086082 
-0.292362 -0.026160 -0.329170 
-0.473199 -0.049193 -0.152618 
0.159078 -0.058031 0.327735 
0.450061 -0.052977 0.035412 
-0.411188 -0.043600 -0.013712 
0.153353 -0.026823 -0.272318 
0.456004 -0.037997 -0.001682 
0.449511 -0.048756 -0.078894 
-0.493627 -0.061121 -0.034432 
-0.287905 -0.058483 0.084029 
-0.377543 -0.054084 0.034175 
-0.408018 -0.063862 0.005440 
-0.558843 -0.033320 -0.031615 
0.075725 -0.070085 -0.359335 
0.260320 -0.083647 -0.268640 
0.062565 -0.041281 -0.333812 
0.431399 -0.056663 -0.148391 
0.411847 0.056936 -0.156554 
-0.361186 -0.060807 -0.068971 
-0.329813 -0.056012 -0.049710 
0.017850 -0.078473 -0.344161 
0.254383 -0.057914 -0.247276 
-0.101533 -0.056124 -0.438972 
0.519027 -0.037476 -0.075013 
0.516562 -0.053666 -0.098586 
0.423509 -0.046045 -0.029740 
0.349567 -0.046884 0.216455 
0.340290 -0.052888 -0.194644 
-0.317261 -0.068538 0.051838 
-0.257044 -0.057772 -0.469477 
0.108368 -0.083264 -0.298569 
0.472167 -0.057700 -0.014797 
0.419550 -0.049856 0.080601 
0.453318 -0.051135 -0.117228 
-0.251404 -0.058472 -0.525343 
0.168404 -0.076629 -0.312449 
-0.194435 -0.032669 -0.412419 
0.506783 -0.064132 -0.138679 
0.317909 -0.055167 -0.152421 
-0.005787 -0.066635 -0.391923 
0.234796 -0.057918 0.318010 
0.382740 -0.052173 0.229462 
-0.302055 -0.061127 -0.380955 
-0.453824 -0.029434 -0.133865 
-0.463655 -0.053398 -0.160708 
0.475724 -0.067436 -0.159350 
0.223282 -0.032478 0.343481 
0.208323 -0.039882 0.371901 
0.304157 -0.056708 0.299304 
-0.412748 -0.047122 -0.197562 
0.140576 -0.051192 0.270766 
0.161303 -0.050535 -0.291309 
0.052434 -0.057257 -0.301193 
0.402013 -0.052638 0.008738 
0.408381 -0.070273 -0.131300 
0.031296 -0.057277 -0.452554 
0.431885 -0.048377 0.140241 
-0.049927 -0.014174 -0.264992 
0.482205 -0.047841 -0.163906 
0.532123 -0.055247 -0.144188 
-0.408929 -0.061038 -0.101503 
-0.353661 -0.068197 -0.200614 
-0.389023 -0.023955 -0.154920 
0.017489 -0.033767 -0.234306 
-0.434887 -0.063916 -0.211666 
0.358436 -0.031879 -0.103478 
-0.261256 -0.088285 -0.335508 
-0.216717 -0.063641 -0.351407 
-0.212171 -0.059856 -0.448790 
0.281488 -0.051504 0.345406 
0.270537 -0.046649 0.350295 
0.112709 -0.033657 0.327154 
0.181648 -0.056335 -0.115175 
0.161041 -0.061450 0.320524 
-0.299723 -0.063486 -0.383872 
-0.349452 -0.049433 0.006312 
-0.269558 -0.094379 -0.008580 
0.080382 -0.049839 0.291005 
0.078705 -0.061712 -0.344290 
0.229723 -0.056622 -0.203515 
-0.167291 -0.060104 -0.423791 
0.071760 -0.055746 -0.231753 
0.321194 -0.053570 0.258380 
0.449522 -0.030803 -0.055251 
0.484694 -0.050944 -0.014693 
0.378117 -0.070984 0.024746 
0.399266 -0.064599 0.042807 
0.410870 -0.047178 -0.083166 
0.420684 -0.023672 -0.001022 
0.553527 -0.060921 -0.113891 
-0.414113 -0.051977 -0.090181 
0.383517 -0.045586 -0.097231 
0.471471 -0.033475 -0.040228 
-0.389983 -0.056736 -0.024285 
0.471099 -0.057343 0.030005 
-0.240583 -0.068940 -0.191824 
0.493993 -0.031684 -0.150613 
-0.187416 -0.060708 -0.489623 
-0.273562 -0.071820 -0.319145 
0.177437 -0.033138 -0.204422 
-0.125248 -0.058055 -0.399434 
-0.202228 -0.038842 -0.474366 
-0.252458 -0.036945 -0.385382 
-0.222461 -0.078640 -0.422589 
-0.313221 -0.050311 -0.378175 
-0.453511 -0.043321 -0.045932 
-0.341327 -0.057169 0.003864 
0.184608 -0.051494 0.296763 
0.209425 -0.067701 0.342308 
0.161863 -0.042286 0.348363 
0.164404 -0.059025 0.331399 
0.266118 -0.057442 0.388342 
0.200626 -0.049314 -0.156311 
0.180481 -0.047658 -0.224884 
0.005869 -0.055328 -0.324691 
-0.067986 -0.069981 -0.375949 
-0.157772 -0.047960 -0.353194 
-0.220688 -0.095443 -0.486512 
-0.389727 0.003035 -0.197883 
-0.016160 -0.054371 -0.388291 
0.358930 -0.046576 -0.126748 
0.309996 -0.047650 -0.038008 
-0.052909 -0.041601 -0.492674 
0.519818 -0.077357 -0.125596 
-0.041433 -0.051961 -0.348572 
-0.194883 -0.055785 -0.379003 
-0.261764 -0.059387 -0.359436 
-0.106473 -0.055013 -0.330245 
-0.177549 -0.052825 -0.309659 
0.466233 -0.028375 0.017258 
0.498624 -0.080504 -0.089739 
0.449705 -0.062821 -0.044921 
0.445309 -0.025867 0.070624 
0.526150 -0.065640 -0.066219 
0.495861 -0.026109 -0.016958 
-0.160178 -0.074277 -0.442488 
-0.180508 -0.041795 -0.404925 
0.364181 -0.037657 0.176619 
-0.240882 -0.054032 -0.400917 
-0.314659 -0.057270 -0.428164 
-0.269700 -0.039527 0.063972 
-0.450579 0.004776 -0.117168 
-0.395277 -0.047302 -0.134091 
-0.072275 -0.041780 -0.301597 
-0.137219 -0.047982 -0.282922 
0.426845 -0.059394 0.075657 
0.426652 -0.053233 -0.036021 
0.255476 -0.053347 0.274790 
0.314515 -0.051064 0.251389 
-0.339405 -0.053527 -0.225068 
0.403122 -0.082592 0.088643 
0.091512 -0.044705 0.256568 
0.350602 -0.048692 0.216810 
0.377235 -0.055892 0.051495 
0.403913 -0.057768 0.121474 
0.280753 -0.069982 0.327505 
0.446268 -0.069229 0.006243 
0.418550 -0.027976 0.052793 
-0.256740 -0.058282 0.047622 
0.021542 -0.072390 -0.328987 
0.402459 -0.044489 -0.099885 
0.233185 -0.062757 -0.207924 
-0.289633 -0.077696 -0.378947 
0.388463 -0.058849 0.225670 
0.312342 -0.045367 -0.149299 
0.281736 -0.058488 0.342885 
0.394495 -0.025267 0.038799 
0.380146 -0.075563 0.025098 
0.521073 -0.016569 -0.013598 
-0.064153 -0.071139 0.138129 
0.149047 -0.078128 0.343756 
0.278257 -0.048575 0.234176 
-0.176988 -0.044810 0.105356 
-0.334208 -0.026352 -0.379479 
-0.023710 -0.047965 -0.277536 
0.186268 -0.063161 0.284100 
0.145924 -0.064519 0.258791 
0.258259 -0.100862 -0.110312 
-0.370801 -0.051272 -0.064932 
0.164730 -0.061636 0.215197 
-0.370350 -0.067860 -0.140478 
0.300564 -0.045384 0.192184 
0.191510 -0.055579 0.296425 
0.245363 -0.062159 0.201377 
0.510732 -0.061630 -0.056289 
0.330759 -0.055915 0.139870 
-0.171896 -0.048766 0.106581 
0.509357 -0.080123 -0.148997 
0.202247 -0.044747 0.140145 
0.500875 -0.051394 -0.159777 
-0.307113 -0.064163 -0.159151 
0.120812 -0.063760 0.296411 
-0.238113 -0.079309 -0.485313 
-0.146414 -0.061595 -0.356384 
-0.397945 -0.061533 -0.204705 
0.289307 -0.049561 -0.106708 
0.344204 -0.061140 -0.198398 
0.183997 -0.053879 -0.226654 
0.145585 -0.063156 -0.256081 
0.379986 -0.049005 -0.057784 
0.429502 -0.053726 -0.145093 
0.518044 -0.062010 -0.103832 
0.231836 -0.057411 0.198948 
0.154715 -0.065872 0.261706 
0.442157 -0.052862 -0.145969 
-0.287392 -0.057151 -0.314265 
0.476846 -0.042219 -0.100141 
0.081356 -0.070559 -0.240174 
0.451900 -0.039531 -0.109179 
0.301933 -0.053433 -0.225159 
0.533064 -0.094334 -0.084736 
-0.263735 -0.011764 -0.075297 
-0.333085 -0.059749 -0.227222 
-0.173845 -0.058098 -0.311224 
-0.321189 -0.014772 -0.283784 
-0.300526 -0.064056 -0.383819 
-0.198218 -0.065047 -0.279557 
-0.331739 -0.079279 -0.303983 
0.456277 -0.064340 -0.087557 
0.479589 -0.056056 -0.133485 
0.429581 -0.064022 -0.155053 
-0.253163 -0.080335 -0.534756 
0.316550 -0.054747 -0.152811 
-0.293837 -0.102029 -0.254360 
0.487718 -0.092516 -0.175099 
0.274285 -0.076981 -0.252299 
0.344794 -0.054261 -0.188687 
0.535718 -0.058141 -0.034543 
0.389021 -0.051193 -0.173870 
0.066441 -0.046684 -0.328077 
0.299468 -0.052927 0.185272 
-0.190340 -0.062772 -0.265301 
-0.140788 -0.054510 -0.468796 
-0.192549 -0.055186 -0.482300 
-0.108840 -0.049837 -0.427892 
0.156114 -0.044137 -0.276614 
0.521027 -0.067328 -0.112240 
-0.137759 -0.055558 -0.055421 
0.334539 -0.058075 -0.200069 
-0.015610 -0.052259 -0.378801 
0.255110 -0.073997 -0.261710 
-0.345835 -0.056923 0.001298 
0.223597 -0.053296 -0.088471 
0.266177 -0.057202 0.047763 
0.421435 -0.044991 -0.025627 
0.407434 -0.054259 -0.104325 
0.414401 -0.053056 0.076682 
0.438090 -0.057423 -0.143708 
0.331151 -0.057577 0.139108 
0.341556 -0.053558 0.208196 
0.526732 -0.061671 -0.098227 
0.252374 0.016648 0.372429 
0.354653 -0.060223 0.207807 
0.201318 -0.045199 -0.147863 
0.165937 -0.068656 -0.304716 
-0.066953 -0.051515 -0.301861 
0.113795 -0.087730 -0.302115 
0.532749 -0.055498 -0.145173 
-0.003401 -0.041209 0.215628 
-0.364403 -0.058364 -0.066800 
0.153511 -0.053685 -0.068377 
-0.428588 -0.066199 -0.058439 
-0.395827 -0.047985 -0.126422 
0.367959 -0.037419 -0.047641 
0.462836 -0.043877 -0.001912 
0.457220 -0.066367 0.024973 
0.238159 -0.061315 0.084381 
0.385286 -0.060023 0.050851 
0.478560 -0.036782 -0.044818 
0.253076 -0.055471 -0.242981 
0.138318 -0.075493 0.180268 
0.167642 -0.053022 0.113178 
0.153737 -0.085036 0.347161 
0.222370 -0.047016 -0.195561 
0.280219 -0.071835 -0.194457 
-0.356160 -0.055791 -0.288802 
-0.253609 -0.059587 -0.464965 
0.252567 -0.051379 -0.235385 
0.126558 -0.069872 -0.220597 
0.189866 -0.060785 -0.229080 
0.102600 -0.062395 0.238939 
0.338612 -0.099455 -0.086158 
0.372984 -0.065793 -0.137760 
-0.050980 -0.094122 -0.403022 
0.491338 -0.036214 -0.146901 
0.058282 -0.034164 -0.209200 
-0.419426 -0.036906 -0.001434 
0.265183 -0.042334 0.366634 
-0.171828 -0.053807 0.104846 
-0.224634 -0.086748 0.013491 
-0.272317 -0.045665 -0.344372 
-0.210132 -0.066117 -0.455655 
0.462775 -0.066343 0.026695 
0.137291 -0.044590 -0.235596 
-0.031719 -0.068003 -0.360661 
-0.079325 -0.084216 0.157365 
-0.111382 -0.077174 -0.417660 
-0.436684 -0.079689 -0.030274 
-0.400088 -0.037062 0.060601 
0.032876 -0.053790 -0.368273 
0.107582 -0.036392 -0.291159 
-0.095472 -0.006993 -0.368988 
-0.401160 -0.058878 -0.202493 
0.170173 -0.036800 0.321055 
0.154785 -0.049833 0.347413 
0.381829 -0.066707 0.153947 
0.424915 -0.061235 0.072208 
0.233983 -0.080469 0.216979 
0.153402 -0.073467 0.248999 
0.293086 -0.129508 0.339322 
0.524903 -0.030508 -0.130557 
-0.216972 -0.052288 -0.437633 
-0.314370 -0.064926 -0.430470 
-0.267579 -0.011764 -0.427744 
-0.371335 -0.056911 -0.330000 
-0.416198 -0.061305 -0.247431 
0.194266 -0.059082 -0.380844 
-0.238567 -0.082510 -0.562809 
0.499581 -0.075689 -0.080856 
0.450280 -0.071547 0.012089 
-0.303648 -0.056949 0.026462 
-0.101583 -0.079538 -0.413698 
0.550423 -0.104812 -0.036797 
0.196620 -0.032868 -0.241954 
-0.406622 -0.070352 -0.169982 
0.241920 -0.095645 -0.314489 
-0.542238 -0.034476 -0.038575 
-0.464335 -0.057114 -0.157386 
0.157455 -0.059282 -0.354999 
-0.301182 -0.062969 -0.382726 
-0.410893 -0.051291 -0.194451 
-0.356326 -0.055750 -0.287541 
-0.125958 -0.061104 -0.286580 
-0.217581 -0.058269 -0.333777 
-0.267511 -0.057456 -0.243653 
-0.345361 -0.048695 -0.215000 
-0.367470 -0.039694 0.022645 
-0.216130 -0.048127 -0.027239 
0.291726 -0.059049 0.001205 
0.346639 -0.036676 0.008635 
0.279287 -0.053557 0.233179 
0.231131 -0.057784 0.318091 
0.409440 -0.057387 0.127137 
0.504538 -0.062062 -0.169319 
-0.009291 -0.070013 -0.293592 
0.039313 -0.040239 0.245171 
-0.029531 -0.062589 0.165566 
-0.337729 -0.061028 -0.114370 
-0.208871 -0.063488 0.067254 
-0.410380 -0.057660 -0.091150 
-0.148308 -0.045666 -0.455115 
-0.318851 -0.062086 -0.336033 
-0.536613 -0.041452 -0.043384 
-0.223946 -0.047879 -0.556115 
-0.109438 0.027365 -0.271518 
-0.313027 -0.052444 -0.369207 
0.036130 -0.051927 0.045694 
-0.256020 -0.044058 -0.383093 
-0.316864 -0.056526 -0.154038 
-0.287349 -0.056741 -0.310571 
-0.349999 -0.088494 -0.173694 
0.042684 -0.069681 0.135556 
0.472096 -0.057826 -0.012174 
0.391224 -0.057007 -0.178996 
-0.298472 -0.050988 -0.193046 
0.287871 -0.033315 -0.195515 
-0.043530 -0.066072 -0.426395 
-0.380741 -0.048366 -0.233785 
-0.275546 -0.057138 -0.419080 
-0.463071 -0.059163 -0.013165 
-0.462919 -0.063808 -0.074307 
-0.395108 -0.064914 -0.209881 
-0.177638 -0.047594 -0.405381 
0.356611 -0.083612 -0.225289 
-0.352200 -0.065758 -0.072521 
0.436268 -0.071775 -0.056754 
0.378246 -0.056543 0.052359 
0.259065 -0.061679 0.268558 
0.337345 -0.093994 0.247942 
-0.233820 -0.056932 0.007896 
-0.476905 0.002345 -0.017071 
-0.289783 -0.068361 0.013289 
-0.331768 -0.078814 -0.315727 
0.154437 -0.043666 -0.274310 
-0.478815 -0.043216 -0.144340 
0.151949 -0.051837 -0.062126 
0.242570 -0.048997 -0.234393 
0.388815 -0.064454 -0.070883 
0.364693 -0.057833 -0.130210 
0.441978 -0.036837 -0.048967 
0.434227 -0.063981 -0.156950 
-0.294651 -0.048660 -0.301313 
0.123247 -0.063591 -0.215241 
0.435691 -0.032918 -0.008963 
-0.123603 -0.061849 -0.286252 
-0.502964 -0.056234 -0.088530 
-0.353637 -0.069928 -0.355365 
-0.401724 -0.058379 -0.201026 
0.470287 -0.052293 0.000795 
0.513396 -0.065837 -0.059150 
-0.140262 -0.057234 -0.473177 
-0.194608 -0.076700 -0.466362 
-0.277169 -0.054896 -0.411869 
0.318233 -0.033641 -0.250994 
0.515459 -0.066745 0.012880 
0.387294 -0.050793 -0.170163 
-0.056824 -0.051733 -0.413536 
-0.468750 -0.040809 -0.152997 
0.300480 -0.052512 -0.220657 
0.029004 -0.055392 -0.363055 
0.456684 -0.052745 0.051712 
0.446093 -0.083917 -0.073958 
0.408827 -0.048162 -0.087018 
0.495755 -0.069425 -0.075953 
0.439954 -0.053001 0.036939 
-0.424331 -0.033148 -0.229285 
0.408982 -0.042075 -0.201758 
0.365299 -0.056184 0.301708 
0.191155 -0.058664 -0.374813 
-0.230201 -0.027167 -0.532822 
-0.122522 -0.062696 -0.545791 
-0.301791 -0.062218 -0.382293 
-0.426445 -0.031831 -0.159957 
0.248129 -0.059259 -0.018606 
-0.314712 0.003437 -0.272132 
-0.177687 -0.078629 -0.404276 
-0.335501 -0.042403 -0.309178 
0.380906 -0.054936 -0.055959 
0.368913 -0.063924 -0.135123 
0.347329 0.009092 -0.193859 
-0.264842 -0.003003 -0.255751 
-0.214651 0.062255 -0.228362 
0.207686 -0.047111 -0.261619 
-0.371294 -0.043799 -0.333157 
0.121223 -0.039063 -0.406547 
-0.315694 -0.045029 -0.354154 
0.129348 -0.073017 -0.343946 
-0.319033 -0.046500 -0.420853 
0.205599 -0.033551 -0.236559 
0.387632 -0.049516 -0.167479 
-0.239627 -0.057608 -0.395929 
0.011841 0.015684 -0.442894 
0.222283 -0.031735 -0.341327 
-0.492665 -0.061599 -0.103731 
-0.031152 0.043205 -0.309899 
0.289089 -0.021976 -0.167303 
0.165971 -0.014017 -0.389152 
-0.305013 -0.045005 -0.466892 
-0.050012 -0.061843 -0.430038 
0.288295 -0.005737 -0.269496 
-0.352018 -0.062298 -0.370803 
-0.301816 -0.061778 -0.381843 
0.290242 -0.033726 -0.180248 
0.377607 -0.028935 -0.120924 
0.187197 -0.005118 -0.179650 
-0.211777 -0.052309 -0.584146 
-0.519148 -0.019334 -0.053361 
-0.056794 -0.052401 -0.417432 
0.490214 -0.060711 -0.053420 
0.305501 -0.067769 0.262558 
0.269565 0.014278 -0.227103 
0.139749 -0.008593 -0.329411 
-0.253327 -0.015790 -0.520657 
-0.514510 -0.031356 -0.072276 
-0.287841 -0.057159 -0.471771 
0.183982 -0.031685 -0.228733 
-0.350568 -0.049756 -0.279235 
0.045982 0.098031 -0.308859 
0.326470 -0.043023 0.121554 
0.028127 -0.044214 -0.344509 
0.304716 -0.058148 0.283176 
-0.331751 -0.059508 -0.408136 
0.146219 -0.026493 -0.371997 
-0.007635 -0.008610 -0.399805 
-0.487636 -0.056110 -0.111026 
0.434691 -0.007909 0.065853 
0.179719 -0.044923 -0.343448 
0.016022 0.046680 -0.403224 
-0.223956 -0.043319 -0.553830 
0.191480 -0.010465 -0.307429 
-0.028649 -0.023637 -0.360999 
-0.014961 -0.005003 -0.380311 
0.161086 -0.040505 -0.383848 
0.303623 -0.034163 -0.296185 
0.361632 0.015212 -0.130899 
-0.311755 -0.226012 -0.318094 
-0.200683 -0.112694 -0.600778 
-0.032570 -0.072072 -0.444114 
-0.222988 0.006390 -0.456255 
-0.382285 -0.123245 -0.013553 
-0.232042 -0.087903 -0.546226 
-0.141748 -0.050670 -0.457421 
-0.200814 0.080844 -0.308014 
0.452547 -0.019811 -0.175243 
0.112887 -0.043220 -0.414047 
0.304810 -0.054974 -0.224937 
-0.323871 -0.061100 -0.418696 
0.200498 -0.035399 -0.241900 
-0.355067 -0.107936 -0.316502 
-0.350682 -0.074906 -0.353080 
0.022146 -0.041288 -0.344502 
-0.544709 -0.025255 -0.045939 
0.272295 -0.034160 0.357652 
0.299194 0.052562 -0.104945 
0.386568 -0.046920 -0.165874 
-0.471252 -0.054583 -0.154880 
-0.256120 -0.026426 -0.474918 
-0.258638 -0.058869 -0.461826 
0.126070 -0.063167 -0.331000 
-0.313331 -0.054402 -0.373867 
-0.246420 -0.050970 -0.394518 
0.469512 -0.036091 -0.108255 
0.213819 -0.034069 -0.168016 
-0.254609 -0.058583 -0.352552 
-0.208194 -0.056678 -0.437179 
-0.298761 -0.082914 -0.444593 
0.306341 -0.021360 -0.227911 
-0.073117 -0.058876 -0.368981 
-0.208149 -0.047835 -0.368524 
-0.152260 -0.034982 -0.368931 
0.332227 -0.080680 0.268191 
-0.278592 -0.055945 -0.415109 
-0.342949 -0.121953 -0.327533 
-0.079355 -0.020569 -0.374148 
0.348731 -0.013061 0.231584 
-0.258523 -0.055043 -0.523102 
0.485815 -0.043470 -0.038231 
-0.085721 -0.072940 -0.438732 
0.457705 -0.065282 -0.092729 
-0.446451 -0.062166 -0.117284 
0.266795 -0.044224 0.339857 
0.337521 -0.046453 0.218926 
0.019048 -0.072660 -0.342406 
0.466022 -0.044312 -0.006318 
0.094360 -0.052683 -0.264824 
0.162860 -0.053696 -0.285664 
-0.183289 -0.064307 -0.484144 
0.519767 -0.140115 -0.177975 
0.271516 -0.068624 -0.251373 
0.419868 -0.041380 -0.015098 
0.247367 -0.079974 0.281666 
-0.407367 -0.056668 -0.198438 
-0.123474 -0.038532 -0.458295 
-0.254566 -0.050497 -0.281434 
-0.317824 -0.049768 -0.370445 
-0.362181 -0.053595 -0.281953 
0.419921 -0.048545 0.088052 
0.411608 -0.002935 -0.085811 
-0.070338 -0.049085 -0.406887 
-0.037612 -0.046229 -0.420298 
-0.438704 -0.042567 -0.135884 
-0.480717 -0.049619 -0.055359 
0.514578 -0.057153 -0.096284 
0.276378 -0.063385 0.333900 
0.137431 -0.049195 0.279114 
0.306712 -0.041847 -0.021985 
0.231068 -0.048664 0.216251 
0.324592 -0.043734 -0.190581 
-0.365139 -0.027930 -0.191155 
-0.381731 -0.043174 -0.047064 
-0.442992 -0.052201 -0.040263 
-0.208586 -0.073706 -0.459931 
-0.351638 -0.052944 0.010625 
-0.183634 -0.006005 -0.410816 
0.021227 -0.039387 -0.338711 
0.384895 -0.046791 -0.167031 
-0.507416 -0.052531 -0.019522 
0.380206 -0.064062 0.046184 
0.005485 -0.080678 -0.398295 
0.137966 -0.060702 -0.141329 
-0.026065 -0.050160 -0.381960 
-0.044140 -0.057713 -0.348620 
-0.187699 -0.071876 -0.391417 
-0.229657 -0.039112 -0.418310 
0.217656 -0.035586 0.346730 
0.041624 -0.041910 0.241465 
0.304099 -0.073689 -0.243357 
0.012142 -0.041512 -0.354114 
0.117357 -0.061057 -0.319767 
0.190149 -0.015269 -0.222444 
0.020986 -0.040527 -0.352111 
-0.247101 -0.124863 -0.336416 
0.190193 -0.059258 -0.225088 
-0.319243 -0.035796 -0.059777 
-0.177749 -0.049352 0.110761 
-0.244361 -0.041396 -0.086424 
0.249547 -0.044187 0.291349 
-0.279101 -0.083786 -0.029035 
0.255583 -0.045256 -0.234033 
-0.092581 -0.042759 -0.238737 
-0.017293 -0.060662 -0.283414 
0.299152 -0.043705 -0.208656 
0.468658 -0.044333 -0.114959 
-0.278273 -0.055878 -0.413866 
0.299663 -0.067229 -0.242460 
-0.343731 -0.040315 -0.311655 
-0.381924 -0.050074 -0.232234 
0.081823 -0.072941 0.267685 
0.244222 -0.099687 -0.314503 
-0.321396 -0.055506 -0.420236 
-0.360711 -0.069556 -0.340778 
-0.535600 -0.043067 -0.049499 
-0.442058 -0.036073 -0.220265 
-0.494844 -0.034145 -0.130244 
0.147433 -0.046879 -0.340233 
-0.487621 -0.022808 -0.160410 
-0.315475 -0.093145 -0.412834 
0.189895 -0.050315 -0.371164 
-0.069982 -0.021022 -0.202103 
0.094457 -0.054285 0.248990 
0.006983 -0.064884 -0.326639 
0.179074 -0.043811 0.310698 
0.080658 -0.050207 -0.331002 
0.173299 -0.051773 -0.284290 
-0.394394 -0.051307 -0.126404 
-0.255444 -0.048107 -0.394565 
0.205353 -0.047566 0.261418 
0.226805 -0.044563 -0.183859 
0.041230 -0.035834 -0.274032 
0.342432 -0.057226 0.204495 
-0.287627 -0.026423 -0.323432 
-0.143823 -0.045626 -0.388713 
0.491135 -0.037854 -0.034832 
0.451009 -0.051381 -0.071931 
-0.070128 -0.041229 -0.286695 
0.427717 -0.061660 -0.154272 
-0.001488 -0.052241 -0.324600 
0.156422 -0.063652 -0.299767 
-0.146237 -0.059744 -0.565565 
0.343950 -0.043829 -0.183146 
0.513751 -0.055654 -0.103220 
-0.168755 -0.069017 -0.429249 
0.468788 0.059783 0.135633 
-0.112988 -0.057756 -0.442074 
0.369847 -0.053198 0.169166 
0.006530 -0.056412 0.199061 
0.076700 -0.039508 -0.269956 
0.025731 -0.055426 -0.252058 
0.454212 -0.057170 0.031805 
0.435493 -0.068755 0.146762 
0.439128 -0.046094 -0.134879 
0.301746 -0.073595 0.277142 
0.254226 -0.064761 -0.248313 
-0.100823 -0.062623 -0.439121 
0.137827 -0.064522 -0.143285 
0.354117 -0.055025 -0.128556 
-0.221050 -0.078748 -0.408840 
-0.077846 -0.066361 -0.375224 
0.105353 -0.074696 -0.283338 
0.074774 -0.053326 -0.339283 
0.343627 -0.055623 -0.191530 
0.432823 -0.054912 -0.144909 
-0.392782 -0.071430 -0.207229 
-0.346047 -0.069666 -0.295132 
-0.351926 -0.050246 0.007049 
-0.362010 -0.063309 -0.069534 
-0.175236 -0.029825 -0.334266 
-0.153051 -0.088090 -0.440615 
0.290238 0.007001 0.309187 
0.525389 -0.056561 -0.096665 
0.520153 -0.054688 -0.096994 
0.477511 -0.058320 -0.134224 
0.431951 -0.065469 -0.043623 
0.366790 -0.071422 0.203172 
0.061397 -0.053809 -0.342360 
0.009729 -0.072080 -0.334436 
0.247968 -0.068777 -0.256053 
-0.185015 -0.051149 -0.476556 
-0.010496 -0.066979 -0.391661 
0.393236 -0.051379 -0.174865 
-0.245093 -0.041563 0.021297 
0.200798 -0.012252 -0.175329 
0.158698 -0.054984 0.329304 
-0.242890 -0.057595 -0.398704 
0.462879 -0.062858 -0.019234 
0.458923 -0.078793 -0.095535 
0.497364 -0.045960 -0.049170 
0.253774 -0.101037 0.275254 
0.293663 -0.093415 0.193683 
0.341774 -0.035235 0.227603 
0.454118 -0.040189 -0.113392 
0.483601 -0.045763 -0.108742 
0.499252 0.031336 0.084146 
-0.173114 -0.090645 -0.503858 
-0.270575 -0.093897 0.000127 
0.372169 -0.057186 0.166338 
-0.381100 -0.064102 -0.138350 
-0.248543 -0.064921 -0.472597 
0.186283 -0.059585 -0.227291 
0.379311 -0.031522 -0.142148 
0.464316 -0.042429 -0.139964 
-0.265424 -0.032570 -0.393527 
0.419656 -0.056514 0.072252 
0.341323 -0.055665 0.203414 
0.244691 -0.051673 0.381796 
0.290236 -0.033983 0.315529 
-0.087219 -0.047083 0.155968 
-0.426175 -0.065681 -0.055236 
0.197831 -0.071061 0.280017 
0.399909 -0.050084 0.012144 
0.023138 -0.022526 0.243467 
0.114409 -0.022175 0.292486 
0.128998 -0.032167 0.288458 
0.021902 -0.054823 -0.255823 
0.210978 -0.018399 0.350547 
0.280279 -0.044374 -0.103862 
-0.492053 -0.063070 -0.035172 
0.406560 -0.050705 -0.179065 
-0.413125 -0.050022 -0.199096 
-0.317258 -0.049372 -0.375175 
-0.300274 -0.046819 -0.308809 
0.262427 -0.041691 -0.170861 
0.411507 -0.065210 -0.113534 
0.408803 -0.032582 0.090295 
0.328772 -0.039350 -0.074728 
0.333251 -0.018836 -0.112808 
0.304330 -0.030311 -0.139321 
0.094894 -0.027011 0.217912 
0.116181 -0.041663 0.213308 
0.309185 -0.036209 0.149289 
0.315104 -0.032978 0.156015 
0.147791 -0.068856 -0.257704 
-0.351163 -0.051992 -0.115938 
-0.394317 -0.058502 -0.025670 
0.538961 -0.059070 -0.037115 
0.525801 -0.044543 -0.139056 
-0.371326 -0.060194 0.033980 
0.066897 -0.054931 0.281222 
0.375090 -0.059977 0.161690 
-0.417966 -0.054552 0.014881 
-0.452132 -0.066641 -0.017688 
-0.489449 -0.067333 -0.098188 
-0.522623 -0.063114 -0.050920 
-0.367839 -0.047223 -0.286369 
-0.267832 -0.046427 0.057356 
0.055361 -0.039914 -0.337712 
0.159005 -0.056072 -0.293007 
0.129384 -0.078958 -0.224374 
0.258772 -0.067569 -0.253709 
0.451636 -0.051582 -0.079914 
0.232683 -0.021046 0.299039 
0.321687 -0.046543 0.029080 
0.379840 -0.066620 0.154324 
0.351591 -0.059207 0.090429 
0.284535 -0.043536 -0.104348 
0.333212 -0.079323 -0.055376 
0.217699 -0.026703 0.226307 
0.201130 -0.034307 0.267453 
0.353987 -0.017394 0.076072 
0.345332 -0.186614 0.061847 
-0.556820 -0.063087 -0.026019 
0.285623 -0.044480 0.299627 
-0.286406 -0.077983 0.107323 
-0.120391 -0.043386 0.194552 
0.409966 -0.009635 -0.000827 
0.478484 -0.038254 -0.060086 
0.029811 -0.031785 -0.288734 
0.556028 -0.068706 -0.121138 
0.488741 -0.042842 -0.125877 
-0.228373 -0.067565 0.104111 
0.345699 -0.204791 0.270904 
-0.278981 -0.063258 0.079771 
-0.462451 -0.055630 -0.160878 
-0.461649 -0.065822 -0.079146 
-0.392710 -0.050806 -0.132159 
0.459860 -0.043893 -0.010291 
0.405294 -0.058413 0.119766 
0.238913 -0.067411 0.304040 
0.148573 -0.041076 -0.286441 
-0.414310 -0.064893 -0.162081 
0.276209 -0.046893 0.233695 
0.291513 -0.029334 0.323952 
0.276181 -0.066717 -0.189458 
0.339433 -0.061095 -0.200610 
0.232677 -0.060391 -0.207409 
-0.500473 -0.050003 -0.118356 
0.287922 -0.036457 -0.093663 
0.346233 -0.014678 -0.100112 
0.417277 -0.046245 0.081780 
0.330152 -0.040161 -0.075071 
-0.100412 -0.080939 0.195805 
-0.127051 -0.076710 0.142623 
-0.398889 -0.050982 -0.021224 
0.350965 -0.045000 -0.128110 
0.279097 -0.039703 0.013645 
-0.311590 -0.060466 -0.271678 
0.091485 -0.029205 -0.195474 
0.409557 -0.056694 -0.108434 
-0.200610 -0.047799 -0.483867 
0.522275 -0.040863 -0.170787 
0.159192 -0.076185 0.247679 
0.178672 -0.030159 0.203599 
0.035530 -0.062869 0.251748 
0.345392 -0.030678 0.233538 
0.363950 -0.018169 0.259981 
-0.301339 -0.049334 -0.197239 
0.377306 -0.062072 0.157474 
0.055439 -0.039297 -0.336672 
-0.006158 -0.056188 -0.382299 
0.012740 -0.063076 -0.328582 
0.253109 -0.064075 -0.252305 
0.092108 -0.057653 -0.280122 
0.347844 -0.036037 0.113718 
0.385314 -0.045361 -0.050516 
0.396164 -0.043249 0.014922 
0.382817 -0.067213 -0.075023 
0.454534 -0.045173 -0.071080 
0.447659 -0.054503 -0.083912 
0.427478 -0.052422 -0.035592 
0.063447 -0.069703 0.207153 
0.326600 -0.038223 0.155140 
0.289277 -0.045680 0.013651 
0.339885 -0.050155 0.207482 
0.271036 -0.046528 0.338340 
0.432411 -0.047710 0.175002 
0.166389 -0.056330 -0.293181 
0.321994 0.000042 0.023629 
0.478271 -0.038228 -0.053670 
0.006586 0.046049 0.138940 
0.524867 -0.035759 -0.110739 
0.320776 -0.055251 -0.154081 
0.147634 -0.045737 0.050877 
0.244072 -0.048339 -0.130765 
-0.122732 -0.053510 -0.104636 
0.264191 -0.047818 -0.060849 
0.199441 -0.046187 -0.037610 
-0.061705 -0.053266 0.212544 
-0.013056 -0.065042 0.224524 
0.071608 -0.056289 -0.232241 
-0.094977 -0.041076 -0.247206 
-0.182752 -0.054637 -0.317286 
-0.190048 -0.038016 -0.292773 
0.166162 -0.053935 -0.176417 
0.014081 -0.002959 -0.438549 
-0.254218 -0.041854 -0.394011 
0.377332 -0.062329 0.158894 
-0.100792 -0.061035 0.179258 
-0.335752 -0.053445 0.061260 
-0.394482 -0.065174 -0.208581 
-0.185438 -0.059336 0.027078 
-0.330982 -0.063036 -0.228423 
-0.028013 -0.045937 -0.158889 
0.105990 -0.064230 -0.277860 
-0.092315 -0.054910 -0.431162 
0.120631 -0.057482 -0.207134 
0.307211 -0.033508 -0.021667 
0.404964 -0.068383 -0.006774 
0.178749 -0.062773 0.104286 
0.353745 -0.046046 -0.009969 
-0.094295 -0.059541 -0.039425 
-0.197579 -0.067406 -0.161190 
0.000652 -0.052081 -0.209868 
-0.006324 -0.037303 -0.195278 
0.146540 -0.060419 -0.254074 
0.097386 -0.071305 -0.177656 
-0.201385 -0.045915 -0.367574 
0.055474 -0.061031 -0.304093 
-0.477500 -0.064209 0.011464 
-0.038604 -0.049313 -0.335740 
-0.028430 -0.074185 -0.369577 
-0.200664 -0.081087 -0.471550 
-0.016433 -0.055069 -0.281198 
-0.129167 -0.060065 -0.409986 
-0.257500 -0.060611 -0.357349 
0.037279 -0.057715 -0.372978 
-0.212093 -0.052878 -0.440220 
0.129928 -0.059591 -0.308884 
-0.263945 -0.042447 -0.515061 
-0.134641 -0.064046 -0.456630 
-0.045354 -0.064945 -0.409058 
0.236083 0.073912 0.177854 
-0.282764 -0.050563 -0.015200 
-0.173732 -0.031657 -0.339764 
0.213071 -0.059661 -0.160194 
0.399178 -0.063773 -0.170332 
0.002566 -0.061805 -0.222224 
-0.370101 -0.052372 -0.063408 
0.225621 -0.075136 0.334929 
0.279729 -0.057620 -0.177444 
-0.095413 -0.041311 -0.366125 
0.278272 -0.057250 0.341704 
0.360220 -0.061889 -0.139607 
0.374006 -0.062548 -0.132953 
0.466046 -0.049313 -0.009937 
0.329459 -0.061957 0.130125 
0.338134 -0.132673 0.211005 
0.345690 -0.055797 0.205643 
0.313992 -0.053571 -0.156684 
0.414590 -0.048064 -0.097839 
0.374017 -0.048904 -0.165621 
0.261451 -0.061284 -0.137088 
-0.178951 0.032358 -0.271665 
0.430612 -0.053580 0.161248 
0.073742 -0.066397 -0.244826 
-0.127585 -0.052445 -0.395265 
0.074555 -0.048804 -0.221370 
0.330029 -0.057804 -0.267438 
0.503820 -0.054888 -0.166341 
0.435844 -0.047363 -0.211005 
-0.183334 -0.068340 -0.385979 
-0.325525 -0.056664 -0.330761 
-0.269673 -0.063427 -0.420648 
0.042838 -0.066008 -0.360067 
0.215578 -0.050900 -0.274573 
-0.303936 -0.068114 -0.435246 
0.222115 -0.064728 -0.267936 
0.310403 -0.066151 -0.219811 
-0.222004 -0.063663 -0.504215 
-0.367184 -0.051904 -0.335239 
-0.070166 -0.041620 -0.426199 
-0.161067 -0.040164 -0.473676 
-0.416056 -0.051488 -0.245990 
-0.335242 -0.068807 -0.395206 
-0.395788 -0.057540 -0.293080 
0.158952 -0.061561 -0.358469 
0.256799 -0.065126 0.370349 
-0.298259 -0.065171 -0.384086 
0.269173 -0.054286 -0.180619 
0.022867 -0.069487 -0.329295 
0.012277 -0.070113 -0.337409 
-0.024566 -0.049707 -0.389423 
0.421304 -0.050724 0.079573 
0.474213 -0.045399 -0.001124 
0.396176 -0.059479 0.112782 
0.443356 -0.062068 0.022620 
0.413283 -0.060058 0.120646 
0.461729 -0.044319 -0.111875 
0.205885 -0.003688 -0.160870 
-0.030387 -0.042819 -0.274764 
-0.276339 -0.070762 -0.211871 
-0.183042 -0.050667 -0.311204 
0.067127 -0.067314 -0.302724 
-0.098766 -0.055885 -0.325062 
-0.259966 -0.068736 -0.370097 
-0.202978 -0.070264 -0.529204 
0.315753 -0.064716 0.378310 
0.373013 -0.054570 0.164973 
0.158511 -0.069579 -0.257983 
0.110446 -0.072844 0.224212 
-0.105200 -0.065170 -0.109342 
-0.048389 -0.068348 0.201007 
-0.215802 -0.076322 0.094958 
-0.137569 -0.058626 0.162663 
0.036989 -0.059214 0.260061 
0.145254 -0.095649 0.262118 
0.200412 -0.070924 -0.237426 
0.069053 -0.056538 -0.346574 
-0.200711 -0.050622 -0.258928 
-0.235549 -0.036105 -0.321008 
0.109942 -0.063478 -0.276689 
0.185794 -0.061761 -0.235342 
0.163453 -0.049172 -0.283921 
-0.160719 -0.070242 -0.431312 
0.096939 -0.065072 -0.286229 
-0.058112 -0.080646 -0.386708 
0.120408 -0.057694 -0.208992 
-0.187226 -0.060295 -0.486874 
-0.097780 -0.061819 -0.440591 
0.457539 -0.040937 -0.063971 
0.277681 -0.060373 -0.182942 
0.454571 -0.055380 -0.082011 
0.431692 -0.059448 -0.041704 
-0.303866 -0.043063 -0.191249 
0.376225 -0.028798 0.079664 
0.044588 -0.078820 -0.159454 
0.412795 -0.057735 -0.107658 
0.363764 -0.062387 -0.023929 
-0.153679 -0.075570 -0.320423 
-0.252547 -0.049818 -0.286621 
0.020303 -0.069448 -0.218595 
-0.365867 -0.051646 -0.177459 
-0.300515 -0.064135 -0.271723 
0.075940 -0.081036 0.283029 
0.168478 -0.066197 -0.192408 
0.077822 -0.061977 -0.236850 
-0.478824 -0.058829 0.015447 
-0.129635 -0.058823 -0.404749 
-0.108550 -0.068849 -0.401023 
-0.363397 -0.079439 0.049111 
0.195381 -0.046242 -0.261488 
0.030746 -0.067093 -0.382812 
-0.328119 -0.021162 -0.455159 
0.020045 -0.071881 0.179183 
-0.181078 -0.062474 -0.376423 
0.040998 -0.046133 -0.296737 
-0.345863 -0.052643 0.006940 
-0.353116 -0.056546 -0.176453 
-0.281989 -0.058242 0.085619 
-0.354652 -0.070021 0.029891 
0.036291 -0.059965 0.146195 
0.135838 -0.040050 0.284344 
0.299273 -0.060940 0.290405 
0.181309 -0.078073 0.309872 
-0.143345 -0.040368 -0.273997 
-0.169478 -0.062095 -0.198460 
-0.068550 -0.050940 -0.304609 
-0.231252 -0.056633 -0.398572 
-0.170098 -0.061343 -0.426821 
0.123363 -0.068073 -0.219580 
-0.192930 -0.070972 -0.497449 
-0.060919 -0.053031 -0.302171 
-0.105059 -0.065146 -0.446868 
-0.243070 -0.054716 -0.399607 
0.360263 -0.052943 -0.130352 
0.258677 -0.048486 -0.234141 
0.343400 -0.060000 0.026386 
0.369129 -0.047124 -0.119618 
0.345292 -0.039550 -0.177046 
0.362382 -0.045674 -0.121819 
0.294235 -0.049870 -0.104990 
0.522183 -0.036016 -0.077206 
0.236269 -0.070268 0.011346 
0.342840 -0.065171 0.131367 
0.326555 -0.009154 -0.040047 
0.216613 0.079220 0.060811 
0.439915 -0.098804 -0.079971 
0.334652 -0.067667 -0.160057 
-0.152745 0.083851 -0.072720 
0.418702 -0.057976 -0.104351 
0.486957 -0.045894 -0.050200 
0.377369 -0.045235 0.061482 
0.362390 -0.053617 0.217100 
0.129658 -0.039662 -0.228971 
0.284067 -0.045761 -0.211740 
0.416099 -0.073144 -0.197495 
-0.060189 -0.028146 -0.330638 
-0.205796 -0.045048 -0.373290 
-0.155814 -0.052425 -0.236696 
-0.103347 -0.057417 -0.329757 
-0.236216 -0.063891 -0.294223 
0.056438 -0.059706 -0.301066 
-0.224991 -0.051688 -0.217146 
0.360049 -0.035479 -0.222516 
-0.312251 -0.069695 -0.339248 
0.005638 -0.055103 -0.211317 
-0.079990 -0.082975 0.161329 
-0.401745 -0.065199 0.008589 
0.189572 -0.048997 0.303152 
0.048059 -0.042551 0.234573 
0.150587 -0.058893 0.266657 
0.085856 -0.058686 0.287151 
-0.269478 -0.080163 -0.330269 
-0.057376 -0.045516 -0.291637 
-0.014811 -0.061968 -0.393638 
0.141662 -0.069071 -0.152285 
0.294456 -0.061998 -0.117643 
0.352073 -0.039509 0.113590 
0.376121 -0.004473 -0.011795 
0.455551 -0.054807 -0.080830 
0.215615 -0.070880 -0.172612 
0.274503 -0.045521 0.236749 
0.125121 -0.065155 -0.098209 
-0.014718 0.003995 0.268846 
0.142151 -0.087103 0.165859 
0.326125 -0.106170 0.018787 
-0.289425 -0.035845 -0.115659 
-0.007251 -0.065431 -0.394131 
0.349429 -0.036282 0.001141 
0.355150 -0.070713 -0.098965 
0.506198 -0.067125 -0.066320 
0.416896 -0.037783 -0.023270 
-0.002770 -0.197505 -0.378251 
0.389581 -0.040258 0.134928 
0.361530 -0.053610 -0.015064 
-0.289636 -0.075288 -0.280261 
-0.247925 -0.056113 -0.293007 
0.359338 -0.065556 0.201099 
-0.314027 -0.059823 -0.274364 
0.098649 -0.063305 -0.169045 
-0.192191 -0.056073 -0.376787 
0.376620 -0.061373 0.159006 
-0.086500 -0.044661 -0.362930 
-0.315349 -0.067105 0.055384 
-0.224335 -0.068258 0.102790 
0.134727 -0.075961 0.285365 
0.217341 -0.061538 0.352372 
-0.349450 -0.059540 -0.290680 
-0.296507 -0.066299 -0.384399 
-0.362241 -0.057694 -0.066303 
0.055174 -0.067740 -0.196054 
-0.165724 -0.071985 -0.207470 
-0.026382 -0.079050 -0.254353 
-0.294226 -0.046907 -0.304725 
0.001160 -0.031880 -0.301001 
0.071391 -0.068494 -0.352262 
0.027799 -0.036633 -0.234664 
0.002232 -0.046460 -0.316325 
-0.133592 -0.036355 -0.263274 
-0.136256 -0.047674 -0.277632 
-0.144029 -0.057487 -0.352674 
-0.073994 -0.065830 -0.378145 
-0.078243 -0.051149 0.038361 
-0.106030 -0.077583 -0.125533 
0.327940 -0.054448 0.255989 
0.100219 -0.041664 -0.257064 
0.189430 -0.047874 -0.217063 
0.514775 -0.068122 -0.106967 
-0.235774 -0.072693 -0.539369 
-0.229910 -0.059797 0.000376 
-0.310677 -0.099484 -0.152699 
-0.247045 -0.066426 -0.358635 
-0.362231 -0.057463 -0.181986 
0.018416 -0.119707 -0.331054 
0.288395 -0.068632 -0.011425 
0.156339 -0.050417 -0.180383 
-0.121488 -0.081217 -0.419699 
0.283536 -0.169235 -0.243819 
-0.126250 -0.066596 -0.179814 
-0.121695 -0.059097 -0.398668 
-0.308550 -0.057158 -0.266957 
-0.205226 -0.053208 -0.436444 
-0.211837 -0.073579 -0.461516 
-0.416186 -0.059718 -0.153560 
-0.266030 -0.063038 -0.422945 
-0.133661 -0.060759 -0.455405 
-0.223234 -0.053722 -0.497216 
-0.045773 -0.060163 -0.404873 
-0.306994 -0.055641 -0.430126 
-0.066235 -0.060315 -0.414321 
-0.443171 -0.067285 -0.186759 
-0.398777 -0.067609 -0.265808 
-0.345268 -0.065505 -0.360558 
-0.057200 -0.059945 -0.435703 
-0.474456 -0.058359 -0.136079 
-0.284437 -0.062585 -0.483623 
-0.432304 -0.054851 -0.043353 
-0.379732 -0.071914 -0.038506 
-0.073216 -0.062219 0.141553 
-0.205527 -0.069829 0.060112 
0.230685 -0.052761 0.320029 
-0.000085 -0.070236 0.224817 
-0.393926 -0.067984 -0.212503 
-0.266607 -0.069619 -0.030103 
-0.217481 -0.153094 -0.225738 
-0.232953 0.049243 0.025622 
-0.175437 -0.064111 -0.318199 
0.125873 -0.067491 -0.216002 
0.294584 -0.046561 -0.098460 
0.357495 -0.042641 0.112400 
0.425699 -0.048005 0.087279 
0.403312 -0.021109 0.045726 
0.368406 -0.048806 -0.120268 
0.282690 -0.091900 -0.212106 
0.178139 -0.081151 -0.309752 
0.253502 -0.065294 -0.252964 
-0.312731 -0.069331 -0.339662 
-0.204733 -0.072353 -0.531860 
-0.433122 -0.062156 -0.223694 
-0.418737 -0.017510 -0.262899 
0.159445 -0.079021 -0.265672 
-0.210473 -0.064046 -0.564183 
0.083229 -0.055504 -0.224934 
-0.045161 -0.054930 -0.466395 
0.195985 -0.075846 0.155177 
0.376776 -0.072480 0.032662 
0.170049 -0.043337 -0.166505 
0.313012 -0.064534 -0.163612 
0.024024 0.002692 -0.014939 
0.165994 -0.061580 -0.187804 
0.246822 -0.068417 -0.147524 
0.115620 -0.054609 -0.092340 
0.371576 -0.055882 -0.014807 
0.346799 -0.070873 0.187470 
0.335180 -0.069623 -0.100369 
0.079574 -0.063973 -0.236832 
0.376699 -0.061045 0.160073 
-0.477950 -0.060252 0.016092 
-0.441758 -0.069686 -0.125801 
-0.400093 -0.062130 -0.092359 
-0.174687 -0.073105 0.123836 
0.104531 -0.065111 0.234045 
0.147722 -0.042218 0.288187 
-0.271910 -0.085943 -0.337594 
-0.234584 -0.045035 -0.385262 
-0.147875 -0.065785 -0.361506 
-0.230074 -0.067228 -0.408027 
-0.335817 -0.067249 -0.122078 
0.309267 -0.062889 0.174912 
0.386346 -0.067018 -0.073124 
0.281441 -0.051740 -0.170549 
0.075408 -0.021359 -0.303966 
0.228394 -0.049726 -0.082287 
0.338976 -0.049183 0.151154 
0.315302 -0.015977 -0.314210 
0.068754 -0.058099 -0.234951 
0.357184 -0.059828 -0.022005 
0.157873 -0.043739 0.060531 
0.312404 -0.079325 0.044844 
-0.181542 -0.059634 -0.373048 
-0.186910 -0.064066 -0.381219 
0.046659 -0.050010 -0.294934 
0.039555 -0.067347 -0.378175 
0.322330 -0.064378 0.065794 
0.250354 -0.055469 0.096033 
0.335926 -0.069452 -0.167719 
0.020594 -0.034666 -0.341239 
-0.157338 -0.046768 -0.451499 
-0.256115 0.012308 -0.465760 
0.028352 -0.059473 -0.143608 
0.422164 -0.050409 -0.099000 
0.487724 -0.065918 -0.066330 
0.344138 -0.061156 -0.089756 
0.323662 -0.062730 -0.157788 
0.410880 -0.055273 -0.104755 
0.383372 -0.060353 0.047796 
0.048405 -0.070534 -0.417355 
0.505277 -0.055573 -0.052238 
0.454974 -0.080563 0.008529 
0.199849 -0.028569 -0.235881 
0.380172 -0.035741 -0.147300 
0.289810 -0.034566 -0.194767 
0.218006 -0.057855 -0.279869 
0.471446 -0.030643 -0.092969 
0.109926 -0.043396 -0.299630 
0.320534 -0.041796 -0.215252 
0.495026 -0.044408 -0.118340 
0.406939 -0.021186 -0.141411 
0.554743 -0.063331 -0.115352 
0.160732 -0.042007 -0.338825 
0.214742 -0.050906 -0.355705 
0.142087 -0.056845 -0.374149 
-0.202225 -0.095253 -0.368983 
-0.100826 -0.082270 -0.353894 
0.377039 -0.062742 0.159112 
-0.163309 -0.065579 0.087955 
0.259691 -0.059827 0.267511 
-0.088678 -0.067390 0.179096 
0.361178 -0.053088 0.221566 
-0.356561 -0.069484 -0.194550 
-0.078988 -0.064795 -0.267400 
0.357303 -0.052876 0.102027 
0.126111 -0.030722 -0.405197 
-0.362274 -0.068945 -0.254875 
0.190514 -0.056070 -0.112836 
0.222884 -0.018062 -0.160927 
0.312466 -0.065027 -0.160809 
0.441173 -0.075408 0.008160 
0.432898 -0.032168 -0.010189 
0.515218 -0.023065 -0.013569 
0.269456 -0.068855 -0.282407 
-0.247862 -0.042715 -0.600952 
0.410827 -0.071328 0.107577 
0.375944 -0.046425 0.179646 
-0.242197 -0.124398 -0.201406 
-0.402104 -0.061451 0.013776 
-0.443508 -0.059399 -0.004666 
-0.412094 -0.069948 -0.165791 
0.012264 -0.054705 0.199673 
-0.299016 -0.061256 -0.380617 
-0.268107 -0.052856 -0.353028 
-0.187888 -0.107070 -0.483725 
-0.298832 -0.060803 -0.441623 
-0.390519 -0.077604 -0.285614 
0.405698 -0.043864 0.022629 
0.012060 -0.047309 -0.198293 
-0.019313 -0.064819 -0.288891 
-0.026455 -0.052516 -0.338718 
0.070907 -0.067207 -0.242481 
0.017787 0.006822 -0.427199 
0.299328 -0.063952 0.288056 
0.175375 -0.054335 0.340381 
-0.004857 -0.056577 0.242146 
0.265848 -0.055411 0.390284 
-0.050705 -0.035631 -0.450871 
-0.086891 -0.075627 -0.503839 
0.487086 -0.027669 -0.148253 
0.069607 -0.055901 -0.413557 
0.167308 -0.065732 -0.392801 
0.317589 -0.039981 -0.278557 
-0.349241 -0.067642 -0.188184 
-0.316539 -0.051063 -0.263672 
-0.387080 -0.058435 -0.024491 
-0.309695 -0.052195 -0.261430 
-0.132962 -0.043312 -0.385363 
0.278424 -0.041663 -0.161748 
0.342526 -0.040868 -0.180260 
0.017453 -0.102438 -0.363330 
0.165168 -0.022445 -0.145582 
0.042369 -0.025901 -0.265952 
0.144903 -0.040994 -0.233984 
-0.026309 -0.096421 -0.456750 
0.240857 -0.054194 0.095954 
-0.139013 -0.016793 -0.493162 
0.490155 -0.035165 -0.029072 
0.443119 -0.026845 -0.186189 
0.161618 -0.005036 -0.373615 
0.220696 -0.073014 -0.347474 
0.537198 -0.059585 -0.030554 
-0.398144 -0.060509 -0.204353 
-0.270211 -0.050123 0.101744 
0.257814 -0.053222 0.277203 
0.453178 -0.057129 -0.081688 
0.414305 -0.041948 -0.090650 
0.383972 -0.041866 0.068108 
0.415843 -0.059472 0.119644 
0.451043 0.000833 0.099884 
0.455128 -0.071969 0.018071 
0.129308 -0.049846 0.320276 
-0.475963 -0.064215 0.013016 
0.100935 -0.055027 0.248520 
-0.445273 -0.061103 -0.115682 
-0.306179 -0.031937 0.053025 
-0.394790 -0.068401 -0.276354 
0.080621 -0.038510 0.198965 
0.473924 -0.045417 0.001531 
0.326546 -0.051952 0.260157 
0.426738 -0.040691 0.095411 
0.238991 -0.045117 0.218204 
-0.136323 -0.059424 0.161773 
-0.225524 -0.071162 0.100068 
-0.294663 -0.066980 -0.388796 
0.117921 -0.027627 -0.176820 
-0.123116 -0.057218 -0.282718 
0.206943 -0.052640 -0.153646 
-0.100051 -0.066699 -0.445107 
-0.016470 -0.054804 -0.387175 
-0.167623 -0.045674 -0.409319 
-0.119436 -0.060054 -0.395537 
-0.034624 -0.052482 -0.343211 
-0.189138 -0.058615 -0.376697 
0.159428 -0.052440 -0.247414 
0.018121 -0.092976 -0.245791 
0.246251 -0.072171 -0.218975 
0.333762 -0.070467 -0.169280 
0.418890 -0.074999 -0.127606 
0.341276 -0.050171 -0.078737 
0.310024 -0.065163 0.293312 
0.452245 -0.067479 0.025230 
0.404822 -0.058308 0.123892 
0.355570 -0.056853 0.212918 
0.035582 -0.061855 -0.372449 
0.375150 -0.058547 0.162353 
-0.394774 -0.068898 -0.103138 
-0.443410 -0.067599 -0.187880 
0.168727 -0.055228 0.225547 
0.213899 -0.058365 0.355811 
-0.433567 -0.052304 -0.215736 
0.365992 -0.052344 -0.124974 
-0.227101 -0.061869 -0.399729 
-0.107918 -0.055195 -0.438433 
-0.089670 -0.045855 -0.425104 
-0.155903 -0.072055 -0.429707 
-0.178298 -0.086062 -0.502747 
-0.001523 -0.056863 -0.382533 
-0.234537 -0.049195 -0.391102 
0.078469 -0.060346 -0.341754 
0.189359 -0.047695 -0.216750 
-0.284792 -0.049787 -0.303777 
-0.010852 -0.070653 -0.399176 
0.168041 -0.057878 -0.291953 
0.286073 -0.085580 0.265258 
0.306291 -0.060559 0.297021 
-0.178266 0.024576 -0.351517 
-0.400475 -0.055529 0.016975 
-0.240462 -0.055466 -0.286044 
0.374845 -0.058365 0.163788 
0.187091 -0.063453 0.283006 
-0.314711 -0.063873 0.059512 
-0.327477 -0.044743 -0.030014 
-0.356321 -0.062381 0.041346 
-0.309288 -0.103170 -0.198252 
-0.392283 0.004077 -0.073056 
0.428778 -0.063740 -0.155703 
-0.164302 -0.064258 -0.423944 
-0.204607 -0.079920 -0.350992 
-0.243525 -0.065816 -0.537228 
0.343145 -0.050778 0.219752 
-0.344786 -0.074224 -0.199485 
-0.307415 -0.064778 -0.273498 
-0.356258 -0.055416 -0.176847 
-0.242461 -0.160242 -0.168107 
0.101308 -0.053613 0.248591 
0.373888 -0.057122 0.164577 
-0.047743 -0.042711 0.231386 
-0.300752 -0.042430 0.042324 
-0.208428 -0.059314 0.071834 
0.125546 -0.057908 0.310644 
-0.266265 -0.060330 0.092107 
-0.396026 -0.065031 -0.208690 
-0.120705 -0.059204 -0.396291 
-0.207883 -0.067596 -0.450472 
0.092639 -0.026221 -0.313538 
-0.243069 -0.082581 -0.417530 
-0.067394 -0.048802 -0.366274 
0.420485 -0.115489 -0.141829 
0.333905 -0.070961 0.322507 
-0.285227 -0.065769 0.112569 
0.474538 -0.046242 -0.000368 
0.369067 -0.062912 0.159469 
0.256965 -0.057473 0.270939 
-0.179068 -0.062004 0.138780 
0.080956 -0.138533 0.032210 
0.151148 -0.036611 0.294828 
-0.486913 -0.052708 -0.171038 
-0.242807 -0.052014 -0.167936 
-0.280837 -0.049836 -0.302654 
-0.361686 -0.052849 -0.060393 
0.341367 -0.063337 -0.201326 
0.361343 -0.070662 0.194810 
0.182585 -0.069857 -0.238305 
0.194423 -0.052925 -0.222410 
-0.255970 -0.021794 -0.324136 
0.388561 -0.045897 -0.050591 
0.454225 -0.054779 0.037189 
-0.011666 -0.044341 -0.266499 
0.413113 -0.095593 0.116488 
0.383424 -0.073266 -0.199959 
0.164350 -0.060149 -0.185611 
-0.367743 -0.045448 -0.168562 
-0.299545 -0.057928 -0.199852 
-0.170116 -0.073020 -0.098116 
0.249452 -0.056343 -0.205242 
-0.253646 -0.066416 0.041084 
-0.165431 -0.063397 0.092884 
-0.140159 -0.066844 0.153091 
-0.228625 -0.064298 0.108030 
0.401320 -0.057284 0.122956 
0.059482 -0.054700 0.225766 
0.165584 -0.065362 -0.299174 
-0.430524 -0.068971 -0.057275 
-0.341471 -0.058730 0.002246 
