0.373936 -0.153135 0.261928 
0.131221 -0.110761 -0.384724 
0.354194 -0.158083 0.290713 
-0.058504 -0.083873 -0.477432 
0.038938 -0.097433 -0.432404 
0.011622 -0.091936 -0.443042 
-0.077260 -0.087821 -0.500441 
0.610708 -0.106300 -0.063549 
0.517885 -0.090170 -0.109321 
0.374402 -0.099282 -0.168612 
0.551341 -0.106108 -0.110865 
0.465652 -0.104166 -0.166366 
0.385695 -0.106449 -0.228522 
0.448208 -0.107902 -0.185023 
0.364858 -0.104860 -0.242905 
0.519119 -0.096320 0.221087 
0.538001 -0.099175 -0.046602 
0.294671 -0.108008 -0.266273 
0.408368 -0.089198 -0.199340 
-0.429257 -0.041961 -0.137919 
0.530218 -0.077578 -0.011519 
0.564235 -0.079452 -0.062186 
0.027841 -0.079333 -0.378169 
-0.214867 -0.112283 -0.357509 
0.198736 -0.084056 -0.257880 
-0.408607 -0.046992 -0.059294 
0.042686 -0.106608 -0.457116 
0.328959 -0.131263 0.332936 
0.310084 -0.094009 0.400864 
0.022755 -0.067324 -0.317557 
-0.123947 -0.071685 -0.352563 
-0.044642 -0.078633 -0.366560 
-0.054569 -0.081222 -0.440809 
-0.103375 -0.100907 -0.435120 
-0.347684 -0.055460 -0.232159 
-0.246522 -0.066750 -0.117954 
-0.199531 -0.081021 -0.412599 
0.099070 -0.081361 -0.385401 
-0.037528 -0.106947 -0.515429 
-0.134521 -0.085671 -0.496915 
0.213171 -0.110821 -0.330597 
0.146347 -0.120413 -0.392417 
-0.309378 -0.069926 -0.162053 
-0.221435 -0.060764 -0.417640 
-0.330844 -0.068645 -0.177973 
-0.217820 -0.099509 -0.259194 
-0.394110 -0.064793 -0.087193 
-0.158972 -0.105219 -0.352958 
0.233540 -0.074828 -0.222561 
-0.087782 -0.067877 -0.322295 
-0.094725 -0.070794 -0.396078 
-0.222192 -0.105173 -0.286888 
-0.121930 -0.093783 -0.516475 
0.055065 -0.065926 -0.344215 
0.609344 -0.072427 0.002459 
0.278463 -0.078369 -0.194313 
-0.289417 -0.107413 -0.023083 
-0.354560 -0.117802 -0.090208 
0.160941 -0.104521 0.260945 
0.224671 -0.105049 0.305770 
0.185493 -0.083108 -0.328035 
0.135063 -0.092645 -0.250182 
-0.254246 -0.083542 -0.331217 
-0.031336 -0.079953 -0.294804 
0.460128 -0.100628 -0.146656 
-0.210340 -0.073131 -0.460794 
-0.313707 -0.077150 -0.173241 
0.531338 -0.094140 -0.075375 
-0.330990 -0.103196 -0.047370 
-0.116596 -0.116175 -0.401299 
0.064726 -0.082466 -0.423003 
-0.214491 -0.061951 -0.352999 
-0.095608 -0.081959 -0.470794 
-0.142879 -0.060676 -0.403417 
-0.044158 -0.056034 -0.475146 
-0.013619 -0.121306 -0.514357 
-0.114966 -0.098131 -0.490904 
-0.189080 -0.088735 -0.405300 
0.008679 -0.067190 -0.390280 
0.038704 -0.097486 -0.439849 
-0.029910 -0.099738 -0.430876 
-0.147581 -0.066621 -0.439106 
-0.048139 -0.127824 -0.509200 
-0.074380 -0.067472 -0.452543 
-0.163536 -0.083116 -0.435568 
0.080048 -0.095713 -0.376547 
-0.076420 -0.083743 -0.517418 
-0.055083 -0.113055 -0.462104 
0.060023 -0.055485 -0.486392 
0.093556 -0.122737 -0.260335 
0.033075 -0.124728 -0.431106 
-0.103685 -0.103536 -0.562233 
-0.119013 -0.110708 -0.379837 
-0.149170 -0.138414 -0.353138 
0.460294 -0.121856 -0.169578 
-0.287787 -0.141899 -0.147282 
-0.101498 -0.130906 -0.429225 
0.087096 -0.105411 -0.409958 
0.011263 -0.109593 -0.473126 
-0.343020 -0.143726 -0.138913 
-0.058705 -0.116820 -0.536961 
-0.047317 -0.124048 -0.561882 
-0.141390 -0.129553 -0.487902 
-0.093203 -0.117028 -0.512196 
0.077760 -0.131368 -0.462153 
0.151812 -0.141327 -0.430523 
0.371906 -0.101975 -0.202916 
0.379452 -0.121989 -0.230041 
-0.258019 -0.128598 -0.323404 
0.111435 -0.132236 -0.472824 
-0.031312 -0.114377 -0.516304 
0.046932 -0.110764 -0.454567 
-0.071210 -0.123219 -0.432938 
-0.065907 -0.107551 -0.475645 
-0.150827 -0.127285 -0.479617 
0.014819 -0.107695 -0.416827 
-0.069001 -0.134238 -0.569707 
-0.341996 -0.102119 -0.085312 
-0.271607 -0.097890 -0.048626 
-0.353725 -0.102691 -0.172520 
-0.220161 -0.129189 -0.058591 
0.220383 -0.110704 -0.326544 
0.107071 -0.120629 -0.362889 
-0.167274 -0.130051 -0.146951 
0.116264 -0.115169 -0.290788 
0.131589 -0.116801 -0.397712 
-0.114081 -0.099237 -0.500927 
0.221056 -0.111506 -0.268216 
0.221370 -0.127786 -0.345864 
0.178374 -0.105722 -0.295246 
0.127887 -0.116265 -0.219940 
0.240872 -0.120962 -0.205819 
-0.148543 -0.059445 -0.466546 
0.151818 -0.125776 -0.336707 
-0.175495 -0.101965 -0.416727 
-0.111954 -0.106700 -0.520790 
0.269926 -0.121134 -0.244420 
-0.028388 -0.104009 -0.444653 
0.165810 -0.115120 -0.188771 
-0.098941 -0.107446 -0.429011 
-0.351298 -0.104039 -0.123154 
-0.177105 -0.085724 -0.339455 
-0.298316 -0.093280 -0.195370 
-0.291764 -0.095810 -0.179744 
-0.086401 -0.100648 -0.612588 
-0.124233 -0.109887 -0.394813 
-0.183952 -0.119063 -0.317061 
-0.174430 -0.103565 -0.438228 
-0.279702 -0.104472 -0.167931 
-0.412642 -0.114819 -0.112309 
-0.350450 -0.099278 -0.098222 
-0.256411 -0.100649 0.018236 
-0.347673 -0.094197 -0.040997 
-0.084236 -0.088056 -0.580577 
-0.117844 -0.090184 -0.585756 
-0.238983 -0.094065 -0.311469 
-0.316945 -0.084059 0.001031 
-0.391009 -0.098148 -0.062070 
-0.232743 -0.086985 -0.202591 
-0.075918 -0.098266 0.156142 
-0.116492 -0.096012 -0.476666 
-0.122190 -0.084863 -0.446152 
-0.054479 -0.099262 -0.531990 
-0.049629 -0.086187 -0.482994 
-0.088439 -0.088741 -0.490108 
-0.142703 -0.101689 -0.437488 
-0.086182 -0.095958 -0.516106 
-0.025704 -0.100523 -0.512735 
-0.125482 -0.126021 -0.465383 
-0.078002 -0.085265 -0.503443 
-0.108853 -0.087343 -0.461185 
-0.115250 -0.116964 -0.469841 
-0.191454 -0.110609 -0.433910 
-0.017343 -0.084807 -0.528336 
-0.218238 -0.113571 -0.272778 
-0.249450 -0.112420 -0.231196 
-0.298136 -0.096939 -0.268171 
-0.237715 -0.095898 -0.350996 
-0.138868 -0.098616 0.110469 
-0.322501 -0.091213 -0.134683 
-0.242263 -0.091973 -0.327977 
-0.180250 -0.092054 -0.392013 
-0.172749 -0.098647 -0.367051 
-0.110105 -0.086153 -0.400713 
-0.203067 -0.087782 -0.401421 
-0.203463 -0.100986 -0.354643 
-0.207543 -0.093206 -0.323840 
-0.147938 -0.091115 -0.407439 
-0.074163 -0.097393 -0.444977 
-0.193500 -0.114260 -0.378992 
-0.137333 -0.094096 -0.489116 
-0.255544 -0.110265 -0.296560 
-0.084491 -0.101004 -0.432837 
-0.063269 -0.089500 -0.432427 
-0.179415 -0.111483 -0.384892 
-0.238515 -0.113612 -0.304020 
-0.040797 -0.081613 -0.470535 
-0.310801 -0.110573 -0.270871 
0.010862 -0.079243 -0.500939 
-0.297410 -0.098980 -0.251267 
-0.102211 -0.089443 -0.354189 
-0.114959 -0.093913 0.014516 
0.027337 -0.076604 -0.488317 
-0.281938 -0.094807 -0.106150 
-0.317695 -0.107120 -0.035074 
-0.234980 -0.096381 -0.281706 
0.030632 -0.034823 0.272842 
0.069868 -0.049757 0.213035 
-0.231182 -0.091207 -0.001594 
0.100803 -0.091621 0.242007 
0.130646 -0.102013 0.304404 
-0.374634 -0.111420 -0.120660 
-0.259983 -0.105665 -0.276953 
-0.264490 -0.099915 -0.242492 
-0.316583 -0.109167 -0.213583 
-0.319026 -0.108149 -0.197278 
-0.190740 -0.102654 -0.285452 
-0.152854 -0.107127 -0.424424 
-0.375171 -0.109575 -0.133431 
-0.400875 -0.121695 -0.152743 
0.292844 -0.083101 0.332160 
0.222585 -0.089625 0.336220 
-0.292071 -0.125230 -0.227570 
-0.425597 -0.119146 -0.116320 
0.399101 -0.065818 0.107161 
0.265050 -0.094011 0.361608 
0.086548 -0.090327 0.285764 
0.315530 -0.093622 0.319706 
0.243031 -0.094622 0.330564 
0.223562 -0.097164 0.182215 
0.295991 -0.099511 0.168983 
0.213824 -0.101341 0.365381 
0.408961 -0.088785 0.199637 
0.199938 -0.082007 0.344947 
0.285144 -0.088620 0.400199 
0.393746 -0.090173 0.160325 
-0.021774 -0.146430 0.136045 
0.472872 -0.093813 0.111120 
0.020143 -0.098163 0.172012 
-0.256869 -0.110075 0.008553 
-0.368245 -0.113077 -0.072015 
-0.010652 -0.106459 0.194130 
0.034585 -0.101104 0.242764 
0.123524 -0.112220 0.289254 
0.255735 -0.103110 0.392397 
-0.385101 -0.130196 -0.122350 
-0.403875 -0.114714 -0.104906 
-0.351040 -0.102475 -0.226346 
0.327930 -0.115894 0.143726 
-0.350662 -0.111199 -0.195930 
-0.312705 -0.104846 -0.246882 
-0.362832 -0.110126 -0.105867 
-0.362057 -0.107724 -0.137838 
-0.381760 -0.103138 -0.080943 
-0.440828 -0.099027 -0.112085 
-0.381649 -0.105143 -0.110886 
-0.313374 -0.091229 -0.174997 
-0.334206 -0.101134 -0.172215 
-0.340865 -0.100396 -0.080435 
-0.437956 -0.100263 -0.096466 
-0.457739 -0.110020 -0.095645 
-0.448220 -0.114023 -0.117385 
-0.457633 -0.109744 -0.073963 
-0.322434 -0.094731 0.015193 
-0.364462 -0.124783 -0.186793 
-0.291662 -0.105395 -0.274168 
-0.271585 -0.104879 -0.260123 
-0.147373 -0.118925 0.096528 
-0.229032 -0.113569 0.041763 
-0.306666 -0.114753 -0.017732 
-0.201832 -0.146356 0.009036 
-0.279194 -0.144108 -0.044789 
-0.069273 -0.132230 0.118826 
-0.080682 -0.057032 0.192513 
-0.151300 -0.141565 0.049107 
-0.329061 -0.101237 -0.033621 
-0.164225 -0.096448 0.094472 
-0.304388 -0.155366 -0.089045 
-0.116296 -0.105702 0.080078 
-0.106703 -0.107170 0.113206 
-0.187779 -0.112353 0.048274 
-0.282544 -0.120659 -0.055701 
-0.326823 -0.106132 -0.073099 
-0.346287 -0.131177 -0.199770 
-0.226007 -0.084704 0.002306 
-0.163666 -0.123624 0.032481 
-0.305423 -0.115406 -0.190301 
-0.180497 -0.129130 0.054565 
-0.300613 -0.104547 -0.052496 
0.007800 -0.113616 0.195736 
-0.229589 -0.146852 -0.016234 
-0.124610 -0.137388 0.081212 
-0.044025 -0.122986 0.154666 
-0.316442 -0.131843 -0.132760 
-0.335187 -0.141504 -0.139632 
-0.256783 -0.140678 -0.078917 
-0.100425 -0.130547 0.047750 
-0.179470 -0.134288 -0.016222 
-0.268586 -0.137321 -0.146813 
-0.302119 -0.119103 -0.088132 
-0.352943 -0.165394 -0.123562 
-0.150005 -0.113606 -0.033423 
-0.218609 -0.136436 -0.047833 
0.080307 -0.113136 0.184586 
0.133306 -0.100761 0.262678 
-0.282878 -0.114037 -0.193730 
0.055054 -0.112689 0.116293 
0.224222 -0.124372 0.289645 
0.246953 -0.116072 0.369572 
0.165957 -0.119992 0.303763 
-0.058842 -0.131718 0.072827 
-0.031717 -0.098864 0.147552 
0.156118 -0.123121 0.229333 
0.063920 -0.105072 -0.057381 
0.042262 -0.120921 0.184381 
-0.289887 -0.126994 -0.277659 
-0.220262 -0.124974 -0.285652 
0.305271 -0.115355 0.362051 
0.359717 -0.122763 0.268596 
0.365156 -0.121827 0.194940 
0.401152 -0.085425 0.096648 
0.363239 -0.095930 0.307971 
-0.305926 -0.130016 -0.270705 
0.265935 -0.117977 0.326169 
0.279870 -0.127790 0.310017 
-0.245936 -0.135550 -0.355287 
-0.300716 -0.130195 -0.207285 
0.357295 -0.128176 -0.231518 
0.274528 -0.137782 -0.297967 
0.195532 -0.138729 -0.357267 
0.292802 -0.116657 -0.211678 
0.419157 -0.121766 0.195349 
0.208942 -0.126381 -0.278345 
-0.011465 -0.105244 -0.300563 
0.100347 -0.116742 -0.290915 
0.247418 -0.129571 -0.252008 
0.466644 -0.107864 0.170943 
0.398840 -0.117678 0.239932 
0.327104 -0.132818 -0.199891 
0.474561 -0.113913 0.124706 
0.434058 -0.103362 0.138575 
0.137653 -0.130884 -0.273293 
0.469787 -0.125588 0.031920 
0.520176 -0.117739 0.077040 
0.450391 -0.110602 -0.159108 
0.534414 -0.101558 -0.089103 
0.553682 -0.094057 -0.015955 
0.619385 -0.099425 -0.031782 
0.573643 -0.125120 -0.011399 
0.033532 -0.136914 -0.476192 
0.116140 -0.125086 -0.408850 
0.483698 -0.131775 -0.083051 
0.449428 -0.108747 0.097107 
0.299194 -0.128131 -0.292102 
0.334066 -0.139586 -0.240266 
0.411945 -0.143324 -0.184250 
0.388684 -0.112676 -0.224352 
0.539104 -0.113951 -0.108246 
0.496136 -0.136390 -0.121265 
0.460954 -0.131062 -0.116810 
0.314758 -0.132330 -0.165710 
0.553426 -0.108453 -0.037512 
0.382026 -0.136201 -0.177835 
0.386720 -0.128484 0.075425 
0.541370 -0.103697 0.053999 
0.349925 -0.156774 0.391380 
0.504361 -0.147042 -0.058104 
0.605107 -0.100221 -0.028187 
-0.317345 -0.150867 -0.085035 
0.150799 -0.141302 -0.385603 
0.269275 -0.144802 -0.319580 
0.262036 -0.145485 -0.360699 
0.273430 -0.137787 -0.358602 
0.274852 -0.140836 -0.361326 
0.262794 -0.137276 -0.333151 
0.324543 -0.109864 -0.245747 
0.509904 -0.176402 0.116655 
0.382798 -0.120288 -0.192558 
0.426981 -0.142312 -0.200680 
0.347837 -0.144373 -0.260797 
0.511631 -0.130629 -0.014594 
0.402602 -0.138648 -0.267278 
0.469991 -0.102053 -0.159350 
-0.242818 -0.138389 -0.012720 
0.085312 -0.121414 0.210231 
0.311556 -0.141939 -0.299836 
0.487241 -0.134786 0.057641 
0.559313 -0.117049 0.000375 
0.606877 -0.113698 -0.053226 
0.632958 -0.120104 -0.062418 
0.594883 -0.120256 -0.013427 
0.007395 -0.114510 0.191041 
0.457100 -0.134826 -0.144227 
0.034182 -0.125360 0.213376 
0.382961 -0.140401 -0.141933 
0.443901 -0.136643 -0.207327 
0.161597 -0.152753 -0.331250 
0.343352 -0.129859 -0.269609 
0.395288 -0.133600 -0.260015 
-0.285709 -0.138745 -0.286817 
-0.279092 -0.137669 -0.217492 
-0.161229 -0.144736 -0.381114 
0.461552 -0.127047 -0.210082 
0.398289 -0.125725 0.148415 
0.483346 -0.103410 0.137995 
0.465751 -0.115585 0.052428 
0.488143 -0.122879 0.099763 
0.553562 -0.109595 0.029031 
0.605501 -0.128666 0.011044 
0.206176 -0.137296 -0.290574 
0.243038 -0.140368 -0.264045 
0.064305 -0.113924 0.184623 
0.525917 -0.091993 0.024609 
0.244787 -0.125684 0.361246 
0.229661 -0.102973 0.314309 
0.362193 -0.103919 0.300962 
0.307121 -0.100806 0.390538 
0.163570 -0.124005 0.301581 
0.404409 -0.126081 0.197201 
0.406471 -0.108545 0.253600 
0.365754 -0.111957 0.284788 
0.335224 -0.121605 0.321987 
-0.018011 -0.119624 0.118603 
0.125521 -0.116457 0.247446 
-0.002703 -0.122170 0.184419 
0.308055 -0.109148 0.371982 
0.487160 -0.114542 0.119434 
0.531572 -0.085477 -0.080492 
0.481763 -0.104802 -0.093955 
0.442982 -0.092565 -0.146581 
0.286210 -0.105404 0.415072 
0.430333 -0.123812 0.013870 
0.500840 -0.108785 -0.060772 
0.548484 -0.077938 -0.002069 
0.374171 -0.085931 -0.132333 
0.362933 -0.087423 -0.206071 
0.402791 -0.107317 -0.152956 
0.431137 -0.130932 -0.186947 
0.362787 -0.115541 -0.242415 
0.112058 -0.120875 0.276164 
0.082438 -0.114593 0.219464 
0.376864 -0.098893 0.040958 
0.569561 -0.097140 -0.026595 
0.556383 -0.100861 -0.095227 
0.427525 -0.123869 0.117858 
0.403820 -0.107918 0.141608 
0.352707 -0.094063 0.233164 
0.475434 -0.079218 -0.120395 
0.399567 -0.121885 0.159734 
0.103099 -0.116445 0.212117 
0.085769 -0.130085 0.237164 
0.189768 -0.125962 0.332552 
0.297422 -0.123357 0.209008 
0.199522 -0.109756 0.241121 
0.310919 -0.133303 0.341634 
0.074005 -0.122564 0.241746 
-0.101070 -0.110109 0.104661 
-0.024064 -0.114869 0.162510 
0.154967 -0.120131 0.304192 
0.250653 -0.107939 0.347352 
0.052111 -0.116701 0.219437 
0.318716 -0.111225 0.333594 
-0.078672 -0.110419 0.101471 
0.129056 -0.121565 0.274269 
-0.001729 -0.115027 0.155744 
0.215862 -0.109945 0.346439 
0.291746 -0.118947 0.289419 
0.348835 -0.121642 0.203955 
0.139674 -0.121020 0.237240 
0.263447 -0.117608 0.331518 
0.180913 -0.118478 0.269710 
0.465646 -0.104066 -0.086818 
0.479030 -0.097654 -0.011353 
0.418945 -0.111263 0.133120 
0.410332 -0.111132 0.060835 
0.367167 -0.133004 0.084355 
0.476021 -0.093514 0.070865 
0.497179 -0.147481 -0.135739 
0.352676 -0.114430 0.064549 
0.241217 -0.112979 0.372150 
0.416499 -0.112302 -0.016153 
0.665317 -0.086957 -0.031942 
0.436962 -0.115414 0.165809 
0.067474 -0.111042 0.251392 
0.373620 -0.116474 0.245012 
-0.021704 -0.122387 0.181546 
0.268518 -0.107612 0.411059 
0.285015 -0.111657 0.333474 
0.385740 -0.111409 0.173513 
0.600841 -0.072062 -0.041572 
0.486660 -0.098909 -0.023299 
0.019327 -0.104955 0.229259 
0.029298 -0.099689 0.186860 
0.076908 -0.152732 0.265837 
0.377960 -0.104698 0.285071 
0.355217 -0.098706 0.233324 
0.352229 -0.093708 0.269318 
0.309349 -0.116166 0.355852 
0.031642 -0.117903 0.219227 
0.001496 -0.102633 0.203451 
0.062271 -0.113141 0.186215 
0.501172 -0.103351 0.119876 
0.612757 -0.095849 -0.018421 
0.168831 -0.105164 0.287612 
0.110978 -0.096456 0.229990 
-0.041838 -0.100721 0.179235 
-0.125429 -0.105174 0.112751 
-0.065872 -0.120362 0.152799 
0.308586 -0.102780 0.305865 
0.432000 -0.104996 0.133462 
0.493307 -0.102643 0.049830 
0.434342 -0.108488 0.197650 
0.225911 -0.104722 0.233772 
0.169916 -0.104342 0.288647 
-0.081404 -0.105149 0.138755 
-0.028151 -0.098235 0.146095 
-0.114356 -0.102355 0.081263 
-0.109702 -0.103123 0.113218 
-0.073781 -0.097074 0.116240 
0.282306 -0.113782 -0.277071 
0.546580 -0.089876 -0.081285 
0.405045 -0.102256 -0.003908 
0.315019 -0.085327 0.328389 
0.513020 -0.093189 -0.045627 
0.422855 -0.103638 0.058265 
0.356492 -0.094213 0.355756 
-0.139528 -0.110968 0.131691 
0.462262 -0.095055 -0.071528 
-0.226510 -0.094389 -0.230772 
-0.307322 -0.089119 -0.114239 
-0.353436 -0.111526 -0.180967 
-0.349086 -0.106976 -0.106928 
-0.266762 -0.115126 -0.055314 
-0.411218 -0.111577 -0.105303 
-0.285775 -0.112327 -0.194267 
-0.328728 -0.111294 -0.048170 
-0.372524 -0.111893 -0.074869 
-0.325279 -0.123375 -0.058704 
-0.355340 -0.116741 -0.182278 
-0.407845 -0.118799 -0.112052 
-0.278781 -0.101465 -0.033724 
-0.330483 -0.118383 -0.123114 
-0.302968 -0.106225 -0.186200 
-0.363002 -0.103556 -0.100888 
-0.292551 -0.105338 -0.114640 
-0.292963 -0.120441 -0.272563 
-0.307815 -0.097890 -0.242098 
-0.242520 -0.101204 -0.264832 
-0.383267 -0.114128 -0.146056 
-0.356872 -0.120159 -0.084325 
-0.324876 -0.106111 -0.076961 
0.365912 -0.110656 -0.221647 
0.468419 -0.109502 0.059213 
-0.317174 -0.109449 -0.150356 
-0.441260 -0.106670 -0.124306 
-0.349044 -0.131888 -0.150686 
-0.337736 -0.111313 -0.152572 
0.249812 -0.116941 -0.247001 
-0.305644 -0.121807 -0.237683 
-0.366664 -0.124573 -0.158864 
-0.390754 -0.106337 -0.074157 
-0.439538 -0.083933 -0.087004 
-0.381293 -0.095780 -0.109969 
0.459046 -0.083603 -0.130058 
-0.463323 -0.125706 -0.090573 
-0.441993 -0.071756 -0.143150 
-0.310704 -0.080337 -0.324392 
0.169032 -0.104884 0.287640 
-0.209357 -0.110020 0.046981 
-0.166690 -0.122246 0.062292 
-0.247748 -0.119186 0.005500 
-0.196643 -0.100333 0.024575 
0.120063 -0.118317 -0.401158 
-0.007574 -0.089530 0.152827 
0.439663 -0.175722 0.192673 
0.058807 -0.116380 -0.328402 
-0.184106 -0.113550 0.002838 
-0.306964 -0.097290 -0.004614 
0.359458 -0.096909 0.240668 
0.225731 -0.099698 0.332760 
-0.294273 -0.112617 -0.258703 
-0.277119 -0.115519 -0.127535 
-0.214752 -0.111276 -0.208375 
-0.227598 -0.117556 -0.282833 
-0.307175 -0.109549 -0.079721 
-0.237208 -0.096604 -0.319039 
0.201928 -0.118304 -0.347776 
-0.121909 -0.108095 -0.324898 
-0.397724 -0.089441 -0.136628 
-0.165212 -0.116145 -0.362711 
-0.024610 -0.122967 -0.394976 
0.034854 -0.116719 -0.463944 
-0.093513 -0.119207 -0.380370 
-0.195214 -0.113942 -0.319485 
0.409140 -0.130603 -0.072521 
-0.133761 -0.113033 -0.400903 
0.377521 -0.112339 -0.228990 
0.392782 -0.109852 -0.158565 
0.299850 -0.114298 -0.287284 
0.348110 -0.115857 -0.220042 
0.078021 -0.111454 -0.428909 
0.240042 -0.115571 0.370028 
0.298487 -0.097172 0.324259 
0.355899 -0.117870 0.197433 
-0.110337 -0.118742 -0.527328 
-0.047105 -0.117073 -0.523180 
-0.022406 -0.110026 -0.014939 
0.005105 -0.106592 -0.497342 
0.218669 -0.118718 -0.350050 
0.230536 -0.114180 -0.281502 
-0.184900 -0.103266 -0.410404 
0.139887 -0.118590 -0.409591 
0.149069 -0.119712 -0.345092 
-0.206254 -0.115528 -0.287669 
-0.218115 -0.124833 -0.365675 
0.269094 -0.111781 -0.275945 
-0.170372 -0.101519 -0.276410 
-0.141376 -0.107262 -0.212212 
0.164861 -0.107741 0.321395 
0.395880 -0.111188 0.068083 
-0.234729 -0.108838 -0.092896 
0.098297 -0.117437 -0.299231 
0.047569 -0.112063 -0.032462 
-0.096590 -0.114356 -0.012595 
0.188864 -0.107327 -0.328997 
-0.135132 -0.114660 -0.299228 
0.103239 -0.113296 -0.399353 
-0.168224 -0.114045 0.004193 
0.325795 -0.095923 -0.052098 
0.231361 -0.111599 0.303177 
0.071394 -0.117494 0.178386 
0.134077 -0.109688 -0.329064 
-0.061611 -0.108422 -0.407631 
0.197214 -0.111172 0.019499 
0.244575 -0.105801 -0.200608 
-0.129190 -0.116579 -0.502936 
0.071188 -0.111986 -0.396659 
0.053804 -0.105058 0.205737 
-0.097900 -0.117184 -0.513550 
-0.036148 -0.136516 -0.545350 
0.045068 -0.133008 -0.483305 
-0.168980 -0.135217 -0.456218 
-0.116224 -0.100540 -0.425886 
-0.170042 -0.123402 -0.454135 
-0.053580 -0.101779 -0.509240 
0.177883 -0.114228 -0.125732 
-0.110006 -0.124442 -0.537001 
0.021368 -0.106497 -0.452586 
0.214523 -0.110717 -0.268013 
-0.229997 -0.102276 -0.330253 
0.197734 -0.121413 -0.346198 
-0.087819 -0.117835 -0.443408 
-0.052757 -0.113751 -0.446745 
-0.014514 -0.120284 -0.459739 
-0.095205 -0.115685 -0.478216 
-0.126723 -0.128920 -0.489802 
-0.021889 -0.112466 -0.486634 
-0.053945 -0.125209 -0.497270 
-0.054952 -0.137980 -0.561194 
0.025332 -0.137925 -0.501207 
-0.147143 -0.133505 -0.492885 
-0.068407 -0.120709 -0.568505 
-0.142297 -0.111023 -0.447387 
-0.069366 -0.107855 -0.457254 
-0.055849 -0.093710 -0.583270 
-0.068286 -0.103420 -0.592406 
-0.085227 -0.114808 -0.625695 
-0.005191 -0.108695 -0.544698 
0.353227 -0.139477 -0.257230 
-0.172417 -0.109940 -0.420818 
-0.106148 -0.116335 -0.442448 
0.056791 -0.095916 -0.495942 
0.024742 -0.077319 -0.519033 
0.356724 -0.124022 -0.234794 
0.562551 -0.082953 0.087953 
0.497109 -0.088577 0.169235 
-0.410462 -0.109892 -0.099015 
-0.190137 -0.123223 -0.424469 
0.009397 -0.139320 -0.485652 
0.406556 -0.082480 -0.109151 
0.323052 -0.087312 -0.177813 
0.531483 -0.107088 -0.094173 
-0.425003 -0.111552 -0.116640 
-0.364366 -0.119280 -0.135483 
-0.352287 -0.108249 -0.242962 
-0.381464 -0.107315 -0.075598 
-0.403969 -0.097774 -0.141247 
0.306797 -0.121507 0.300229 
0.186065 -0.108726 -0.347055 
-0.039171 -0.074823 -0.480184 
-0.184001 -0.114780 -0.443466 
0.265902 -0.110492 -0.288351 
-0.449817 -0.091802 -0.103881 
-0.229061 -0.106437 -0.399644 
0.009911 -0.075338 -0.465222 
0.585213 -0.105984 -0.040091 
-0.447173 -0.079826 -0.133600 
0.181834 -0.106714 0.339988 
-0.154801 -0.077715 -0.449533 
0.401496 -0.090822 0.081651 
-0.311330 -0.123657 -0.043352 
0.352560 -0.100188 -0.218473 
-0.188923 -0.096653 -0.308559 
0.277602 -0.061003 0.394016 
-0.304820 -0.115516 -0.207638 
-0.350625 -0.122785 -0.076149 
-0.272512 -0.123653 -0.017734 
-0.230656 -0.122974 0.018396 
-0.317517 -0.114298 -0.170101 
-0.358116 -0.133816 -0.191436 
-0.315284 -0.093349 -0.210551 
-0.374368 -0.072269 -0.165049 
-0.334680 -0.117565 -0.171346 
0.520678 -0.096819 -0.090050 
0.484530 -0.082776 0.075940 
0.519684 -0.103100 -0.031510 
0.204194 -0.109164 0.294743 
-0.397400 -0.117841 -0.057906 
-0.191103 -0.124542 0.042826 
0.361940 -0.123245 0.215391 
-0.320840 -0.118033 -0.000413 
-0.194935 -0.124210 -0.272864 
-0.259268 -0.121721 -0.258153 
-0.216662 -0.132442 -0.208603 
-0.297169 -0.129857 -0.261995 
-0.239493 -0.096230 -0.158160 
0.013637 -0.133251 0.066853 
0.419902 -0.139126 0.070639 
-0.061709 -0.108853 0.159372 
0.561606 -0.102681 0.006525 
-0.093108 -0.095219 0.141744 
-0.038060 -0.109119 0.117251 
-0.022370 -0.111828 0.182483 
0.118950 -0.114998 0.228697 
0.415147 -0.092025 0.145520 
0.281476 -0.101880 0.295527 
0.287990 -0.108174 0.361420 
0.480669 -0.120755 0.063551 
0.469128 -0.147413 -0.019083 
0.468029 -0.114340 -0.152784 
0.222952 -0.105726 0.366661 
0.263751 -0.090773 0.350765 
0.263709 -0.110584 0.398652 
0.444508 -0.092850 0.105450 
0.018984 -0.108631 0.220258 
0.437621 -0.099248 -0.158065 
0.210475 -0.122737 -0.085055 
0.364072 -0.102957 -0.154988 
0.265392 -0.092954 0.167931 
0.270934 -0.084855 -0.070196 
0.410405 -0.097390 -0.038852 
0.552665 -0.097666 -0.057520 
0.382835 -0.106190 -0.186185 
0.132664 -0.101598 -0.007311 
0.343779 -0.106173 0.279979 
0.387890 -0.099538 0.258727 
0.400710 -0.101679 -0.198622 
0.395519 -0.103162 -0.239865 
0.011053 -0.119536 0.250177 
0.466081 -0.120032 0.183771 
-0.423476 -0.087515 -0.071981 
-0.357572 -0.086175 -0.156075 
0.293432 -0.091636 -0.266619 
-0.094616 -0.086933 -0.500575 
0.405209 -0.090082 0.083255 
-0.156136 -0.086178 -0.415736 
-0.290592 -0.076085 -0.224244 
-0.294120 -0.087475 -0.243730 
0.410531 -0.085420 0.091097 
-0.245704 -0.086432 0.036182 
0.217933 -0.088630 -0.317285 
-0.173611 -0.089234 0.096183 
-0.162763 -0.090456 -0.352498 
-0.128809 -0.085137 -0.580808 
0.406680 -0.088830 0.084014 
-0.001333 -0.080858 0.229226 
0.238946 -0.086028 0.403701 
0.161584 -0.084288 0.343281 
-0.094120 -0.087307 -0.615043 
0.464881 -0.099151 0.135641 
0.405139 -0.087774 0.086185 
-0.221137 -0.071454 -0.301915 
0.410346 -0.084899 0.090996 
0.411452 -0.084593 0.092238 
-0.342510 -0.086891 -0.012939 
0.412338 -0.083685 0.092676 
-0.029903 -0.083414 -0.505766 
-0.374130 -0.076512 -0.102044 
0.009531 -0.044344 -0.453369 
-0.122554 -0.078511 -0.441666 
-0.142962 -0.080625 -0.421258 
-0.311463 -0.077327 -0.187742 
-0.245242 -0.073696 -0.268924 
-0.198249 -0.089459 -0.370015 
0.279611 -0.090629 0.438374 
-0.085419 -0.086437 -0.508761 
-0.073180 -0.090742 -0.573835 
0.297840 -0.081023 -0.307198 
-0.105453 -0.093625 -0.430220 
-0.158329 -0.082773 -0.404467 
-0.127526 -0.111445 -0.519347 
-0.158026 -0.088193 -0.465410 
0.254676 -0.063305 -0.333307 
-0.243618 -0.096351 -0.256559 
0.357855 -0.085532 -0.255545 
-0.256103 -0.088853 0.036414 
-0.237434 -0.083123 -0.307801 
-0.107062 -0.092035 -0.497150 
-0.230682 -0.092407 -0.262326 
0.607137 -0.077979 -0.044440 
-0.213965 -0.095675 -0.361219 
-0.024394 -0.087424 -0.433361 
0.290801 -0.090425 -0.254595 
0.271505 -0.074304 -0.265260 
-0.348321 -0.075615 -0.063939 
-0.251157 -0.066102 -0.247002 
-0.225039 -0.078954 -0.318499 
-0.173336 -0.085414 -0.390270 
-0.133276 -0.107990 -0.432475 
-0.453369 -0.088425 -0.092921 
-0.030064 -0.080939 -0.493607 
-0.392655 -0.076184 -0.112069 
-0.047738 -0.090382 -0.548186 
-0.159275 -0.075609 0.119677 
-0.284055 -0.072065 -0.139573 
-0.157456 -0.085094 -0.336750 
-0.024330 -0.078419 -0.494614 
0.179914 -0.081669 -0.334368 
-0.248617 -0.071400 -0.009987 
0.515799 -0.056961 -0.099373 
-0.217092 -0.077282 -0.239028 
-0.105383 -0.099844 -0.577284 
0.234193 -0.072510 -0.375400 
-0.079072 -0.072589 -0.594919 
0.292780 -0.060135 -0.329171 
0.423517 -0.087782 -0.214954 
0.413368 -0.060310 -0.242152 
-0.349088 -0.086737 -0.206758 
-0.222273 -0.086943 -0.370454 
-0.357680 -0.094359 -0.096254 
-0.166495 -0.083425 -0.321869 
0.075589 -0.065145 -0.418710 
0.142341 -0.079782 -0.368554 
-0.153431 -0.076896 -0.446507 
-0.371019 -0.075776 -0.031520 
-0.294753 -0.094132 -0.178567 
-0.251425 -0.095252 -0.248296 
-0.124915 -0.088219 -0.474647 
-0.103548 -0.082680 -0.405002 
-0.275596 -0.072749 -0.275266 
-0.303914 -0.084271 -0.056107 
-0.251478 -0.083398 0.051465 
-0.068423 -0.094560 -0.545008 
-0.360522 -0.087361 -0.076908 
0.156741 -0.093324 -0.339638 
-0.452508 -0.083322 -0.081443 
-0.224060 -0.085409 -0.251998 
-0.258489 -0.099634 -0.321103 
0.078779 -0.088200 -0.396666 
-0.262227 -0.074805 -0.254781 
-0.197249 -0.075674 -0.341554 
-0.037490 -0.086751 -0.504052 
0.335420 -0.083545 -0.207100 
0.266562 -0.090387 -0.320931 
0.174488 -0.076149 0.364124 
0.546511 -0.085095 -0.070124 
-0.209901 -0.073958 -0.154801 
-0.327416 -0.093364 -0.054538 
-0.154816 -0.073524 -0.309659 
-0.162849 -0.088007 -0.338376 
-0.096962 -0.083561 -0.421364 
-0.010854 -0.090653 -0.461042 
0.230003 -0.076728 -0.299891 
-0.243645 -0.076528 -0.200239 
-0.084395 -0.081508 -0.342838 
-0.008081 -0.097205 -0.395651 
-0.329035 -0.085987 -0.116291 
0.209512 -0.088746 -0.387026 
0.427064 -0.055460 -0.230437 
-0.248806 -0.078716 -0.118042 
-0.281857 -0.099076 -0.212020 
-0.098749 -0.065702 -0.598360 
0.028703 -0.107921 -0.389781 
-0.112664 -0.087544 -0.408537 
-0.081138 -0.080058 0.177904 
-0.211392 -0.083884 -0.177487 
-0.318294 -0.088676 -0.131512 
-0.391577 -0.072180 -0.104616 
-0.062199 -0.085285 -0.460694 
-0.163056 -0.078686 0.118137 
0.124496 -0.090689 -0.382270 
-0.171322 -0.088323 -0.411371 
0.649975 -0.128269 -0.021430 
0.334009 -0.092131 0.365883 
-0.124007 -0.102536 -0.502428 
0.393070 -0.111054 0.200981 
0.052875 -0.069691 -0.417771 
0.307207 -0.086242 0.410622 
0.215184 -0.082548 -0.306165 
0.484037 -0.064585 -0.100794 
0.085153 -0.115179 -0.392663 
-0.064142 -0.104311 -0.506732 
0.418092 -0.134569 0.088403 
0.392718 -0.091775 0.285335 
-0.328743 -0.088994 -0.045711 
0.105766 -0.105420 -0.393577 
0.079886 -0.069141 -0.281307 
0.008988 -0.115447 -0.386051 
-0.321965 -0.108938 -0.185590 
-0.192225 -0.108589 -0.277813 
-0.113861 -0.102380 -0.555065 
0.332833 -0.112078 0.282948 
0.439732 -0.094448 0.325388 
-0.167009 -0.086063 -0.455892 
-0.011185 -0.088987 0.228190 
0.543427 -0.114638 0.000695 
0.424807 -0.113093 0.164024 
0.288313 -0.090347 -0.255284 
-0.248683 -0.108099 -0.342181 
-0.256187 -0.094003 -0.313850 
-0.099617 -0.081668 -0.483976 
-0.193660 -0.095894 -0.396771 
-0.138556 -0.103228 -0.486423 
-0.245001 -0.098269 -0.258469 
-0.127918 -0.097331 -0.415683 
-0.067591 -0.102683 -0.502684 
-0.309849 -0.103032 -0.254625 
-0.172755 -0.085548 -0.398231 
-0.112330 -0.111236 -0.371929 
-0.299062 -0.080998 0.035609 
0.022939 -0.021306 -0.513210 
0.278959 -0.095806 0.430925 
-0.069013 -0.107539 -0.512509 
-0.346196 -0.097246 -0.026798 
-0.196971 -0.091065 -0.292215 
0.578703 -0.091441 -0.062102 
0.069720 -0.103054 -0.434173 
-0.006548 -0.098788 -0.485478 
-0.129051 -0.083316 -0.364942 
-0.102467 -0.104192 -0.450461 
-0.058094 -0.079947 -0.440169 
-0.212636 -0.076711 0.103049 
0.600578 -0.102450 -0.032942 
-0.096265 -0.082589 -0.531171 
-0.136326 -0.086655 -0.438631 
-0.063778 -0.078424 -0.521330 
-0.072022 -0.083915 -0.562049 
0.274543 -0.101693 -0.326364 
0.174240 -0.086209 -0.382090 
0.414209 -0.087169 -0.215388 
0.267122 -0.083766 -0.333959 
0.498410 -0.091675 -0.121648 
-0.098284 -0.090911 -0.600903 
-0.406427 -0.087234 -0.121565 
-0.457330 -0.088298 -0.087453 
-0.111166 -0.083637 -0.401476 
0.445349 -0.096841 -0.144121 
0.241852 -0.085444 -0.332025 
0.365590 -0.101175 -0.276306 
0.321938 -0.107467 -0.288797 
0.199882 -0.093428 -0.385000 
0.086259 -0.084811 -0.449868 
0.528323 -0.095082 -0.081487 
0.279280 -0.102069 -0.268164 
-0.032186 -0.102145 -0.472347 
0.428818 -0.060393 0.338649 
-0.032766 -0.090343 -0.424370 
0.021386 -0.095454 -0.437055 
-0.034843 -0.072763 -0.394776 
0.428194 -0.079343 0.260487 
-0.188084 -0.080540 0.055304 
-0.108677 -0.086912 0.104454 
-0.110201 -0.072307 -0.384320 
-0.099064 -0.079022 -0.399023 
0.552765 -0.098678 -0.076612 
-0.349161 -0.083406 -0.204024 
0.394867 -0.102526 0.071746 
0.111767 -0.101053 -0.385099 
0.364578 -0.062616 0.418577 
-0.230348 -0.103282 -0.298500 
0.197793 -0.098449 -0.323598 
-0.347846 -0.093670 -0.122513 
-0.021284 -0.115634 -0.504871 
-0.245044 -0.075498 -0.266273 
-0.311019 -0.078211 -0.183383 
-0.311787 -0.087721 -0.123287 
-0.137179 -0.107120 -0.425892 
-0.292326 -0.082308 -0.229332 
-0.127787 -0.089053 -0.374953 
-0.233037 -0.085842 -0.319925 
-0.281202 -0.086627 -0.193183 
-0.057435 -0.099927 -0.505983 
-0.180592 -0.096418 -0.410312 
-0.201290 -0.112751 -0.350321 
-0.287772 -0.118609 -0.166237 
0.269405 -0.109830 -0.278853 
-0.120283 -0.082419 -0.464453 
-0.254984 -0.113045 -0.343064 
-0.249244 -0.092509 -0.236121 
-0.090719 -0.106536 -0.469215 
-0.372347 -0.082780 -0.035190 
-0.072429 -0.104496 -0.504438 
-0.316397 -0.102722 -0.168673 
-0.258717 -0.097287 -0.311118 
-0.182233 -0.088829 -0.383714 
-0.103312 -0.094358 -0.424404 
0.114455 -0.094385 -0.375991 
0.573177 -0.066565 0.106127 
0.296991 -0.111531 -0.242069 
-0.376415 -0.079865 -0.107237 
0.447125 -0.066151 0.277671 
-0.297238 -0.088931 -0.162404 
-0.262409 -0.114289 -0.024593 
0.080278 -0.092132 -0.417723 
-0.182344 -0.075980 -0.349732 
-0.352376 -0.076398 -0.062180 
0.190096 -0.071364 -0.370581 
-0.347209 -0.084449 -0.200114 
-0.398353 -0.077240 -0.108011 
-0.048147 -0.071819 -0.447043 
-0.212601 -0.075002 -0.357376 
-0.112100 -0.068514 -0.430233 
0.238327 -0.074213 0.367594 
0.602990 -0.075611 0.061364 
-0.092849 -0.079231 -0.532592 
-0.127368 -0.079901 -0.573190 
-0.090789 -0.089933 -0.508223 
-0.069361 -0.087676 -0.565739 
-0.274290 -0.072574 -0.271439 
-0.146999 -0.082781 -0.419453 
0.363354 -0.095741 -0.202229 
0.545754 -0.072732 0.150387 
0.487930 -0.065547 0.155726 
0.216847 -0.082986 -0.306648 
0.128680 -0.086649 -0.372372 
-0.148454 -0.096594 -0.516036 
-0.332936 -0.077316 -0.001189 
-0.208753 -0.075741 0.099383 
-0.164555 -0.087003 -0.331684 
0.250262 -0.085174 -0.199487 
-0.344207 -0.112923 -0.079820 
-0.258370 -0.086737 -0.052046 
-0.159423 -0.107456 -0.314350 
-0.168052 -0.103747 -0.378956 
-0.105782 -0.068542 -0.281547 
-0.182354 -0.114433 -0.480091 
0.351483 -0.078128 0.389589 
0.345344 -0.099485 0.225910 
0.664967 -0.056035 0.034832 
0.437444 -0.078749 -0.000104 
0.052441 -0.087105 -0.367195 
-0.019110 -0.075955 -0.422256 
-0.041670 -0.086676 -0.499198 
-0.109755 -0.084817 -0.326460 
0.248052 -0.058491 -0.128053 
0.147003 -0.094097 -0.336101 
-0.057837 -0.089560 -0.388864 
0.226430 -0.097750 -0.280830 
0.230870 -0.077078 -0.235487 
0.040472 -0.083140 -0.428016 
-0.286934 -0.080028 -0.073617 
-0.041918 -0.081592 -0.405908 
0.664350 -0.078191 -0.005222 
-0.247676 -0.072745 0.070118 
0.337440 -0.073937 -0.196822 
-0.380960 -0.082236 -0.032685 
-0.182951 -0.090039 -0.320173 
-0.128559 -0.062959 -0.561803 
-0.086025 -0.077870 -0.596079 
-0.103665 -0.087275 -0.566965 
-0.342313 -0.080250 -0.192730 
-0.284030 -0.095706 -0.264376 
0.295033 -0.085910 -0.249417 
-0.042771 -0.083916 -0.489622 
0.107379 -0.093556 -0.366873 
0.088651 -0.080997 -0.449876 
-0.336286 -0.095345 -0.050678 
-0.167437 -0.084528 -0.403239 
-0.302422 -0.076259 -0.211894 
-0.161647 -0.052818 -0.263057 
-0.221971 -0.092605 -0.280352 
-0.207931 -0.083627 -0.335529 
-0.279962 -0.060403 -0.023289 
0.336027 -0.062691 0.445506 
-0.359246 -0.080022 -0.061083 
-0.291812 -0.074348 0.032062 
-0.363622 -0.076896 -0.127004 
-0.291114 -0.088711 -0.165506 
-0.146514 -0.079928 -0.349759 
0.451416 -0.091191 0.202317 
0.523105 -0.083747 0.131973 
0.405028 -0.081644 0.295169 
0.004269 -0.076201 0.248905 
-0.285967 -0.075263 0.033517 
-0.137798 -0.074700 0.090650 
0.569285 -0.062818 -0.038930 
0.450013 -0.107000 0.059180 
0.171300 -0.073086 0.373244 
0.445200 -0.112207 0.126453 
-0.363660 -0.090369 -0.080586 
-0.344994 -0.093819 -0.118813 
-0.416044 -0.119152 -0.069075 
-0.393521 -0.080070 -0.084006 
-0.333855 -0.085690 -0.172394 
-0.089999 -0.065381 -0.390976 
-0.144751 -0.069091 -0.436368 
0.175181 -0.081340 -0.386203 
-0.067770 -0.085457 -0.565959 
-0.111879 -0.078120 -0.604252 
0.211010 -0.083081 -0.378134 
0.626876 -0.063769 -0.024206 
0.151402 -0.083210 -0.421754 
0.294399 -0.081527 -0.303059 
0.340424 -0.092838 -0.259152 
0.234886 -0.089659 0.412935 
0.034001 -0.061318 -0.453412 
-0.177331 -0.051898 0.018751 
-0.204361 -0.076845 -0.088105 
-0.451418 -0.078893 -0.073511 
-0.237479 -0.050538 -0.307901 
0.651868 -0.075238 0.011084 
-0.108622 -0.090073 -0.424695 
-0.143868 -0.098147 0.127697 
-0.157382 -0.085128 0.085617 
-0.228791 -0.098334 0.068036 
-0.187114 -0.090267 -0.144362 
-0.317621 -0.066378 -0.235909 
-0.224052 -0.081652 -0.244470 
0.144376 -0.097568 -0.337709 
0.434554 -0.081541 -0.200666 
0.285970 -0.065440 -0.328192 
0.409335 -0.064399 -0.241618 
0.336805 -0.097782 -0.310840 
-0.172228 -0.084431 0.113500 
0.440843 -0.074339 -0.156534 
-0.159341 -0.100848 -0.202845 
-0.359527 -0.093406 -0.092401 
0.166246 -0.048846 -0.331429 
-0.150560 -0.074819 -0.241913 
-0.028561 -0.074928 -0.401788 
0.038663 -0.069811 -0.313799 
-0.152721 -0.053880 -0.190930 
-0.045798 -0.082179 -0.312556 
-0.120090 -0.075411 -0.368246 
-0.048117 -0.074906 -0.379886 
0.062358 -0.094713 -0.396406 
-0.017484 -0.091239 -0.455009 
-0.431734 -0.025952 -0.094362 
0.278897 -0.063668 -0.358085 
0.047459 -0.073640 0.282155 
0.329399 -0.064716 0.449472 
0.320758 -0.087161 -0.211523 
-0.256518 -0.093961 -0.307927 
-0.226650 -0.078789 -0.237060 
-0.266441 -0.074259 -0.082120 
-0.273936 -0.075293 -0.075571 
-0.310207 -0.091510 -0.155168 
-0.192632 -0.098456 -0.325571 
-0.052548 -0.096518 -0.505932 
-0.154769 -0.071385 -0.313145 
-0.143405 -0.067794 -0.320045 
-0.129911 -0.097351 -0.408151 
-0.018115 -0.101199 -0.392022 
-0.147030 -0.085996 -0.356950 
0.261146 -0.051191 -0.325333 
-0.176751 -0.088494 -0.517729 
-0.155808 -0.138471 -0.141600 
-0.314088 -0.081868 -0.123924 
-0.238651 -0.090877 -0.324178 
-0.273783 -0.090151 -0.027054 
-0.292008 -0.086425 -0.168526 
-0.296836 -0.085824 -0.159688 
-0.068919 -0.100889 -0.495584 
-0.450820 -0.079027 -0.119750 
0.126012 -0.086257 -0.367911 
-0.223087 -0.079400 -0.249211 
0.004155 -0.062445 -0.418204 
-0.098688 -0.080145 -0.486933 
-0.356672 -0.086144 -0.150017 
-0.372278 -0.072640 -0.027570 
0.321303 -0.074296 0.437373 
-0.142402 -0.074608 -0.259233 
-0.119120 -0.087459 -0.467293 
-0.140140 -0.052807 -0.561971 
-0.022065 -0.071967 -0.493069 
-0.071825 -0.068644 0.188891 
-0.259351 -0.097784 -0.311681 
-0.102267 -0.124324 -0.504075 
-0.417052 -0.083103 -0.061665 
-0.166777 -0.081403 0.121216 
-0.242082 -0.092217 -0.324977 
-0.170020 -0.088330 -0.337360 
-0.130882 -0.098317 -0.406416 
-0.375619 -0.081563 -0.034682 
-0.350471 -0.081297 -0.068629 
-0.351510 -0.086070 -0.079251 
-0.281125 -0.067917 -0.212859 
-0.102680 -0.088609 -0.414637 
-0.250840 -0.081537 0.059364 
-0.359936 -0.081340 -0.061359 
0.458446 -0.089025 -0.122919 
-0.230341 -0.088610 -0.249010 
-0.035844 -0.094604 -0.430133 
-0.232471 -0.086835 -0.239592 
-0.380214 -0.084033 -0.107296 
0.304512 -0.081989 -0.238553 
-0.294574 -0.082292 -0.142774 
-0.075389 -0.075217 0.189358 
0.571554 -0.072122 -0.047367 
-0.354335 -0.112288 -0.141679 
-0.304246 -0.099863 -0.175338 
-0.328201 -0.083413 -0.101736 
-0.159946 -0.089648 -0.259935 
-0.090433 -0.086289 -0.345399 
0.383896 -0.083304 -0.179365 
-0.164446 -0.087517 -0.330888 
-0.174049 -0.086488 -0.315879 
-0.229008 -0.084709 -0.314309 
0.535137 -0.078702 -0.094091 
0.625378 -0.074505 -0.029597 
-0.032744 -0.094477 -0.357098 
-0.158217 -0.079566 -0.395384 
-0.101409 -0.084187 -0.481366 
-0.287783 -0.081642 -0.151835 
0.430129 -0.090550 -0.206635 
-0.239765 -0.087621 -0.234588 
-0.038492 -0.082821 -0.485139 
0.070955 -0.078204 -0.361768 
-0.340014 -0.099804 -0.125042 
-0.320348 -0.086397 -0.037490 
-0.239593 -0.075536 -0.114777 
-0.135971 -0.088686 -0.286098 
-0.303225 -0.081081 -0.212991 
-0.282295 -0.082141 -0.072438 
-0.263407 -0.090852 -0.121280 
-0.085544 -0.090199 -0.272893 
-0.020369 -0.073661 -0.487010 
-0.246254 -0.086469 -0.300139 
0.115645 -0.097877 -0.374036 
-0.110461 -0.085059 -0.398819 
-0.183933 -0.076997 -0.280627 
-0.454386 -0.082325 -0.073147 
0.227763 -0.079536 -0.296332 
-0.147322 -0.089697 -0.357971 
0.328894 -0.102469 -0.262747 
-0.336841 -0.074027 -0.185271 
-0.274768 -0.072067 -0.269289 
-0.210828 -0.074773 -0.353197 
-0.379113 -0.077489 -0.099726 
-0.316565 -0.079384 -0.182734 
-0.313998 -0.065205 -0.154450 
-0.260956 -0.085733 -0.273597 
-0.287844 -0.095031 -0.016203 
-0.070174 -0.076779 -0.497025 
-0.140467 -0.079796 -0.415401 
-0.185592 -0.064754 -0.319282 
-0.121922 -0.076802 -0.434753 
-0.068226 -0.088327 -0.563724 
-0.040523 -0.072893 -0.521351 
-0.141814 -0.058284 -0.573520 
-0.123164 -0.078510 -0.568519 
0.250722 -0.094300 -0.321066 
-0.340457 -0.085548 -0.005472 
0.218616 -0.086914 -0.349600 
-0.318217 -0.082958 -0.034226 
-0.039208 -0.086626 -0.487691 
-0.080717 -0.101035 -0.570023 
0.261555 -0.102562 0.428032 
0.201756 -0.097148 -0.358558 
-0.084470 -0.074587 -0.586182 
0.267533 -0.137075 -0.293987 
-0.089303 -0.086509 -0.532258 
0.144855 -0.130686 -0.338606 
