0.131221 -0.110761 -0.384724 
0.038938 -0.097433 -0.432404 
0.610708 -0.106300 -0.063549 
0.374402 -0.099282 -0.168612 
0.551341 -0.106108 -0.110865 
0.465652 -0.104166 -0.166366 
0.385695 -0.106449 -0.228522 
0.448208 -0.107902 -0.185023 
0.364858 -0.104860 -0.242905 
0.538001 -0.099175 -0.046602 
0.294671 -0.108008 -0.266273 
-0.214867 -0.112283 -0.357509 
0.042686 -0.106608 -0.457116 
-0.103375 -0.100907 -0.435120 
-0.037528 -0.106947 -0.515429 
0.213171 -0.110821 -0.330597 
-0.217820 -0.099509 -0.259194 
-0.158972 -0.105219 -0.352958 
-0.222192 -0.105173 -0.286888 
-0.289417 -0.107413 -0.023083 
0.160941 -0.104521 0.260945 
0.224671 -0.105049 0.305770 
0.460128 -0.100628 -0.146656 
-0.330990 -0.103196 -0.047370 
-0.114966 -0.098131 -0.490904 
0.038704 -0.097486 -0.439849 
-0.029910 -0.099738 -0.430876 
-0.055083 -0.113055 -0.462104 
-0.103685 -0.103536 -0.562233 
-0.119013 -0.110708 -0.379837 
0.087096 -0.105411 -0.409958 
0.011263 -0.109593 -0.473126 
-0.058705 -0.116820 -0.536961 
-0.093203 -0.117028 -0.512196 
0.371906 -0.101975 -0.202916 
-0.031312 -0.114377 -0.516304 
0.046932 -0.110764 -0.454567 
-0.065907 -0.107551 -0.475645 
0.014819 -0.107695 -0.416827 
-0.341996 -0.102119 -0.085312 
-0.271607 -0.097890 -0.048626 
-0.353725 -0.102691 -0.172520 
0.220383 -0.110704 -0.326544 
-0.114081 -0.099237 -0.500927 
0.221056 -0.111506 -0.268216 
0.178374 -0.105722 -0.295246 
-0.175495 -0.101965 -0.416727 
-0.111954 -0.106700 -0.520790 
-0.028388 -0.104009 -0.444653 
-0.098941 -0.107446 -0.429011 
-0.351298 -0.104039 -0.123154 
-0.086401 -0.100648 -0.612588 
-0.124233 -0.109887 -0.394813 
-0.174430 -0.103565 -0.438228 
-0.279702 -0.104472 -0.167931 
-0.350450 -0.099278 -0.098222 
-0.256411 -0.100649 0.018236 
-0.391009 -0.098148 -0.062070 
-0.075918 -0.098266 0.156142 
-0.054479 -0.099262 -0.531990 
-0.142703 -0.101689 -0.437488 
-0.025704 -0.100523 -0.512735 
-0.191454 -0.110609 -0.433910 
-0.218238 -0.113571 -0.272778 
-0.249450 -0.112420 -0.231196 
-0.298136 -0.096939 -0.268171 
-0.138868 -0.098616 0.110469 
-0.172749 -0.098647 -0.367051 
-0.203463 -0.100986 -0.354643 
-0.074163 -0.097393 -0.444977 
-0.193500 -0.114260 -0.378992 
-0.255544 -0.110265 -0.296560 
-0.084491 -0.101004 -0.432837 
-0.179415 -0.111483 -0.384892 
-0.238515 -0.113612 -0.304020 
-0.310801 -0.110573 -0.270871 
-0.297410 -0.098980 -0.251267 
-0.317695 -0.107120 -0.035074 
0.030632 -0.034823 0.272842 
0.130646 -0.102013 0.304404 
-0.374634 -0.111420 -0.120660 
-0.259983 -0.105665 -0.276953 
-0.264490 -0.099915 -0.242492 
-0.316583 -0.109167 -0.213583 
-0.319026 -0.108149 -0.197278 
-0.190740 -0.102654 -0.285452 
-0.152854 -0.107127 -0.424424 
-0.375171 -0.109575 -0.133431 
0.223562 -0.097164 0.182215 
0.295991 -0.099511 0.168983 
0.213824 -0.101341 0.365381 
0.020143 -0.098163 0.172012 
-0.256869 -0.110075 0.008553 
-0.010652 -0.106459 0.194130 
0.034585 -0.101104 0.242764 
0.255735 -0.103110 0.392397 
-0.351040 -0.102475 -0.226346 
-0.350662 -0.111199 -0.195930 
-0.312705 -0.104846 -0.246882 
-0.362832 -0.110126 -0.105867 
-0.362057 -0.107724 -0.137838 
-0.381760 -0.103138 -0.080943 
-0.440828 -0.099027 -0.112085 
-0.381649 -0.105143 -0.110886 
-0.334206 -0.101134 -0.172215 
-0.340865 -0.100396 -0.080435 
-0.437956 -0.100263 -0.096466 
-0.457739 -0.110020 -0.095645 
-0.457633 -0.109744 -0.073963 
-0.291662 -0.105395 -0.274168 
-0.271585 -0.104879 -0.260123 
-0.329061 -0.101237 -0.033621 
-0.116296 -0.105702 0.080078 
-0.106703 -0.107170 0.113206 
-0.326823 -0.106132 -0.073099 
-0.300613 -0.104547 -0.052496 
0.133306 -0.100761 0.262678 
-0.282878 -0.114037 -0.193730 
-0.031717 -0.098864 0.147552 
0.063920 -0.105072 -0.057381 
-0.011465 -0.105244 -0.300563 
0.466644 -0.107864 0.170943 
0.434058 -0.103362 0.138575 
0.450391 -0.110602 -0.159108 
0.534414 -0.101558 -0.089103 
0.619385 -0.099425 -0.031782 
0.449428 -0.108747 0.097107 
0.388684 -0.112676 -0.224352 
0.553426 -0.108453 -0.037512 
0.541370 -0.103697 0.053999 
0.605107 -0.100221 -0.028187 
0.324543 -0.109864 -0.245747 
0.469991 -0.102053 -0.159350 
0.483346 -0.103410 0.137995 
0.553562 -0.109595 0.029031 
0.229661 -0.102973 0.314309 
0.362193 -0.103919 0.300962 
0.307121 -0.100806 0.390538 
0.406471 -0.108545 0.253600 
0.481763 -0.104802 -0.093955 
0.286210 -0.105404 0.415072 
0.500840 -0.108785 -0.060772 
0.402791 -0.107317 -0.152956 
0.376864 -0.098893 0.040958 
0.569561 -0.097140 -0.026595 
0.556383 -0.100861 -0.095227 
0.403820 -0.107918 0.141608 
0.199522 -0.109756 0.241121 
-0.101070 -0.110109 0.104661 
0.250653 -0.107939 0.347352 
-0.078672 -0.110419 0.101471 
0.465646 -0.104066 -0.086818 
0.479030 -0.097654 -0.011353 
0.410332 -0.111132 0.060835 
0.416499 -0.112302 -0.016153 
0.268518 -0.107612 0.411059 
0.486660 -0.098909 -0.023299 
0.019327 -0.104955 0.229259 
0.029298 -0.099689 0.186860 
0.377960 -0.104698 0.285071 
0.355217 -0.098706 0.233324 
0.001496 -0.102633 0.203451 
0.501172 -0.103351 0.119876 
0.168831 -0.105164 0.287612 
-0.041838 -0.100721 0.179235 
-0.125429 -0.105174 0.112751 
0.308586 -0.102780 0.305865 
0.432000 -0.104996 0.133462 
0.493307 -0.102643 0.049830 
0.434342 -0.108488 0.197650 
0.225911 -0.104722 0.233772 
0.169916 -0.104342 0.288647 
-0.081404 -0.105149 0.138755 
-0.028151 -0.098235 0.146095 
-0.114356 -0.102355 0.081263 
-0.109702 -0.103123 0.113218 
-0.073781 -0.097074 0.116240 
0.282306 -0.113782 -0.277071 
0.405045 -0.102256 -0.003908 
0.422855 -0.103638 0.058265 
-0.139528 -0.110968 0.131691 
-0.353436 -0.111526 -0.180967 
-0.349086 -0.106976 -0.106928 
-0.411218 -0.111577 -0.105303 
-0.285775 -0.112327 -0.194267 
-0.328728 -0.111294 -0.048170 
-0.372524 -0.111893 -0.074869 
-0.278781 -0.101465 -0.033724 
-0.302968 -0.106225 -0.186200 
-0.363002 -0.103556 -0.100888 
-0.292551 -0.105338 -0.114640 
-0.307815 -0.097890 -0.242098 
-0.242520 -0.101204 -0.264832 
-0.324876 -0.106111 -0.076961 
0.365912 -0.110656 -0.221647 
0.468419 -0.109502 0.059213 
-0.317174 -0.109449 -0.150356 
-0.441260 -0.106670 -0.124306 
-0.337736 -0.111313 -0.152572 
-0.390754 -0.106337 -0.074157 
0.169032 -0.104884 0.287640 
-0.209357 -0.110020 0.046981 
-0.196643 -0.100333 0.024575 
-0.306964 -0.097290 -0.004614 
0.225731 -0.099698 0.332760 
-0.294273 -0.112617 -0.258703 
-0.214752 -0.111276 -0.208375 
-0.307175 -0.109549 -0.079721 
-0.237208 -0.096604 -0.319039 
-0.121909 -0.108095 -0.324898 
-0.195214 -0.113942 -0.319485 
-0.133761 -0.113033 -0.400903 
0.377521 -0.112339 -0.228990 
0.392782 -0.109852 -0.158565 
0.299850 -0.114298 -0.287284 
0.078021 -0.111454 -0.428909 
-0.047105 -0.117073 -0.523180 
-0.022406 -0.110026 -0.014939 
0.005105 -0.106592 -0.497342 
0.230536 -0.114180 -0.281502 
-0.184900 -0.103266 -0.410404 
0.269094 -0.111781 -0.275945 
-0.170372 -0.101519 -0.276410 
-0.141376 -0.107262 -0.212212 
0.164861 -0.107741 0.321395 
0.395880 -0.111188 0.068083 
-0.234729 -0.108838 -0.092896 
0.047569 -0.112063 -0.032462 
0.188864 -0.107327 -0.328997 
-0.135132 -0.114660 -0.299228 
0.103239 -0.113296 -0.399353 
0.134077 -0.109688 -0.329064 
-0.061611 -0.108422 -0.407631 
0.197214 -0.111172 0.019499 
0.244575 -0.105801 -0.200608 
-0.129190 -0.116579 -0.502936 
0.071188 -0.111986 -0.396659 
0.053804 -0.105058 0.205737 
-0.116224 -0.100540 -0.425886 
-0.053580 -0.101779 -0.509240 
0.021368 -0.106497 -0.452586 
0.214523 -0.110717 -0.268013 
-0.229997 -0.102276 -0.330253 
-0.052757 -0.113751 -0.446745 
-0.095205 -0.115685 -0.478216 
-0.021889 -0.112466 -0.486634 
-0.142297 -0.111023 -0.447387 
-0.069366 -0.107855 -0.457254 
-0.068286 -0.103420 -0.592406 
-0.085227 -0.114808 -0.625695 
-0.005191 -0.108695 -0.544698 
-0.172417 -0.109940 -0.420818 
-0.106148 -0.116335 -0.442448 
-0.410462 -0.109892 -0.099015 
0.531483 -0.107088 -0.094173 
-0.425003 -0.111552 -0.116640 
-0.352287 -0.108249 -0.242962 
-0.381464 -0.107315 -0.075598 
-0.403969 -0.097774 -0.141247 
0.186065 -0.108726 -0.347055 
-0.184001 -0.114780 -0.443466 
0.265902 -0.110492 -0.288351 
-0.229061 -0.106437 -0.399644 
0.585213 -0.105984 -0.040091 
0.181834 -0.106714 0.339988 
0.352560 -0.100188 -0.218473 
-0.188923 -0.096653 -0.308559 
0.520678 -0.096819 -0.090050 
0.519684 -0.103100 -0.031510 
0.204194 -0.109164 0.294743 
-0.061709 -0.108853 0.159372 
0.561606 -0.102681 0.006525 
-0.038060 -0.109119 0.117251 
0.281476 -0.101880 0.295527 
0.287990 -0.108174 0.361420 
0.222952 -0.105726 0.366661 
0.018984 -0.108631 0.220258 
0.437621 -0.099248 -0.158065 
0.364072 -0.102957 -0.154988 
0.410405 -0.097390 -0.038852 
0.552665 -0.097666 -0.057520 
0.382835 -0.106190 -0.186185 
0.132664 -0.101598 -0.007311 
0.343779 -0.106173 0.279979 
0.387890 -0.099538 0.258727 
0.400710 -0.101679 -0.198622 
0.395519 -0.103162 -0.239865 
0.464881 -0.099151 0.135641 
-0.127526 -0.111445 -0.519347 
-0.133276 -0.107990 -0.432475 
-0.105383 -0.099844 -0.577284 
-0.258489 -0.099634 -0.321103 
-0.008081 -0.097205 -0.395651 
-0.281857 -0.099076 -0.212020 
0.028703 -0.107921 -0.389781 
-0.124007 -0.102536 -0.502428 
0.085153 -0.115179 -0.392663 
-0.064142 -0.104311 -0.506732 
0.105766 -0.105420 -0.393577 
0.008988 -0.115447 -0.386051 
-0.321965 -0.108938 -0.185590 
-0.192225 -0.108589 -0.277813 
-0.113861 -0.102380 -0.555065 
-0.248683 -0.108099 -0.342181 
-0.138556 -0.103228 -0.486423 
-0.245001 -0.098269 -0.258469 
-0.127918 -0.097331 -0.415683 
-0.067591 -0.102683 -0.502684 
-0.309849 -0.103032 -0.254625 
-0.112330 -0.111236 -0.371929 
-0.069013 -0.107539 -0.512509 
-0.346196 -0.097246 -0.026798 
0.069720 -0.103054 -0.434173 
-0.006548 -0.098788 -0.485478 
-0.102467 -0.104192 -0.450461 
0.600578 -0.102450 -0.032942 
0.274543 -0.101693 -0.326364 
0.445349 -0.096841 -0.144121 
0.365590 -0.101175 -0.276306 
0.321938 -0.107467 -0.288797 
0.279280 -0.102069 -0.268164 
-0.032186 -0.102145 -0.472347 
0.552765 -0.098678 -0.076612 
0.394867 -0.102526 0.071746 
0.111767 -0.101053 -0.385099 
-0.230348 -0.103282 -0.298500 
0.197793 -0.098449 -0.323598 
-0.021284 -0.115634 -0.504871 
-0.137179 -0.107120 -0.425892 
-0.057435 -0.099927 -0.505983 
-0.180592 -0.096418 -0.410312 
-0.201290 -0.112751 -0.350321 
0.269405 -0.109830 -0.278853 
-0.254984 -0.113045 -0.343064 
-0.090719 -0.106536 -0.469215 
-0.072429 -0.104496 -0.504438 
-0.316397 -0.102722 -0.168673 
-0.258717 -0.097287 -0.311118 
0.296991 -0.111531 -0.242069 
-0.148454 -0.096594 -0.516036 
-0.344207 -0.112923 -0.079820 
-0.159423 -0.107456 -0.314350 
-0.168052 -0.103747 -0.378956 
-0.182354 -0.114433 -0.480091 
0.345344 -0.099485 0.225910 
0.226430 -0.097750 -0.280830 
0.450013 -0.107000 0.059180 
-0.143868 -0.098147 0.127697 
-0.228791 -0.098334 0.068036 
0.144376 -0.097568 -0.337709 
0.336805 -0.097782 -0.310840 
-0.159341 -0.100848 -0.202845 
-0.431734 -0.025952 -0.094362 
-0.192632 -0.098456 -0.325571 
-0.052548 -0.096518 -0.505932 
-0.129911 -0.097351 -0.408151 
-0.018115 -0.101199 -0.392022 
-0.068919 -0.100889 -0.495584 
-0.259351 -0.097784 -0.311681 
-0.130882 -0.098317 -0.406416 
-0.354335 -0.112288 -0.141679 
-0.304246 -0.099863 -0.175338 
-0.340014 -0.099804 -0.125042 
0.115645 -0.097877 -0.374036 
0.328894 -0.102469 -0.262747 
-0.080717 -0.101035 -0.570023 
0.261555 -0.102562 0.428032 
0.201756 -0.097148 -0.358558 
